# .PCD v0.7 - Point Cloud Data file format
VERSION 0.7
FIELDS x y z
SIZE 4 4 4
TYPE F F F
COUNT 1 1 1
WIDTH 144
HEIGHT 1
VIEWPOINT 0 0 0 1 0 0 0
POINTS 144
DATA ascii
-0.139395 0.46964502 -1.814775
-0.74315882 0.41611251 -1.7225751
-0.65102845 0.41915998 -1.7277538
-0.54641527 0.41969705 -1.7243646
-0.44088656 0.41811317 -1.7110486
-0.34495676 0.42068538 -1.7165657
-0.26861197 0.41891307 -1.7074904
-0.048207592 0.42191869 -1.7139727
0.050515644 0.42255297 -1.7137928
0.15024412 0.42386824 -1.7166228
0.25133672 0.42559558 -1.7179819
0.35142377 0.42649981 -1.7192671
0.41036656 0.42731515 -1.7200874
-0.7375223 0.37771648 -1.6362882
-0.64924109 0.37790403 -1.6365694
-0.54980177 0.37717247 -1.6360109
-0.44983408 0.37726018 -1.6368045
-0.35003215 0.37723058 -1.6372679
-0.26639813 0.37709063 -1.6373113
-0.11702974 0.37694678 -1.6373692
-0.050593004 0.37731218 -1.6385504
0.049835861 0.37696463 -1.6381999
0.14988028 0.37703916 -1.6383822
0.24979977 0.37678099 -1.6380482
0.34941727 0.37699026 -1.6379358
0.41277161 0.37658152 -1.6363593
-0.73709321 0.40397713 -1.6815277
-0.64755875 0.40451878 -1.681843
-0.54927182 0.40618309 -1.6848559
-0.44924468 0.40706983 -1.6863468
-0.34967327 0.40786022 -1.6879028
-0.26874858 0.40914577 -1.6864209
-0.05067629 0.40758884 -1.6884266
0.048896577 0.40754163 -1.6883581
0.14987765 0.40742716 -1.6885318
0.2488279 0.40756729 -1.6884474
0.34932965 0.40750772 -1.6892422
0.41237068 0.40792552 -1.6886238
-0.74157482 0.29844478 -1.5020784
-0.6600005 0.29881731 -1.5017773
-0.55183578 0.29865557 -1.5017868
-0.44312871 0.29834032 -1.5022582
-0.34858978 0.29838499 -1.5032784
-0.25805923 0.29834896 -1.502905
-0.11301211 0.29813001 -1.5034158
-0.053198703 0.29824063 -1.5036784
0.049635485 0.29819319 -1.5035954
0.14919402 0.29811087 -1.5041441
0.24866201 0.29808643 -1.5042379
0.347018 0.29820532 -1.5039386
0.41589734 0.29846004 -1.5038334
-0.73276162 0.32770723 -1.550849
-0.64954376 0.32748583 -1.5509007
-0.54923522 0.32681096 -1.550644
-0.4497835 0.32668796 -1.5510176
-0.34978178 0.32664827 -1.5518049
-0.26130947 0.32613981 -1.5508763
-0.11619843 0.32710937 -1.552551
-0.050544523 0.32676163 -1.5530318
0.049854077 0.32644293 -1.5528185
0.14996924 0.32660732 -1.5535144
0.24990435 0.32643154 -1.5530531
0.34974158 0.32679868 -1.5530514
0.4157947 0.32577643 -1.5504042
-0.73138106 0.26809591 -1.4472303
-0.64934433 0.26818374 -1.4474777
-0.54965085 0.2676875 -1.4473697
-0.44972438 0.2675066 -1.4479514
-0.34987763 0.26682365 -1.4475207
-0.25594032 0.26601988 -1.4467978
-0.11453541 0.26628318 -1.4480585
-0.049946237 0.26594582 -1.4474378
0.050189525 0.26593748 -1.447876
0.14988062 0.26563054 -1.4478726
0.24961221 0.26558766 -1.4482077
0.34960458 0.26612934 -1.4490006
0.41893604 0.26517895 -1.446694
-0.72826993 0.19145633 -1.3165917
-0.65036964 0.19115809 -1.315029
-0.54999584 0.19105826 -1.3150071
-0.44939116 0.1911401 -1.3155382
-0.35010102 0.19073917 -1.315385
-0.24923258 0.19033821 -1.3156738
-0.15039292 0.19023931 -1.3169417
-0.049983095 0.19030225 -1.3170786
0.049975201 0.18988746 -1.3167562
0.14951092 0.18982314 -1.3167057
0.24977528 0.18978275 -1.3170418
0.34904426 0.18959232 -1.3172044
0.42389157 0.18947293 -1.3168529
-0.7281996 0.22036211 -1.3651561
-0.64937544 0.21977343 -1.3642572
-0.54952383 0.2195382 -1.3642586
-0.45014864 0.21954632 -1.3647748
-0.34980884 0.21886283 -1.3643396
-0.24708474 0.22128789 -1.3627024
-0.05042877 0.21829203 -1.3654588
0.049444452 0.21830015 -1.3659266
0.14944671 0.21832074 -1.366279
0.24947913 0.2182254 -1.3664563
0.34972176 0.21853805 -1.3669467
0.42235878 0.21782252 -1.365896
-0.7248053 0.15348026 -1.2492973
-0.6492098 0.15248057 -1.2475715
-0.54925358 0.15256967 -1.2482381
-0.4493143 0.15202527 -1.2477565
-0.34937745 0.151813 -1.2480361
-0.24980366 0.1511728 -1.2478542
-0.14968807 0.15117362 -1.2487543
-0.049813498 0.15112336 -1.2491953
0.049844347 0.15029472 -1.2481712
0.14966153 0.1501763 -1.2486446
0.24951801 0.14976999 -1.2484671
0.34990403 0.14924377 -1.2477988
0.4251537 0.14857274 -1.2473654
-0.72141021 0.084568009 -1.1283228
-0.64938629 0.084574632 -1.1277691
-0.54948837 0.084897131 -1.1290629
-0.44874859 0.084190913 -1.1283287
-0.34994298 0.083211675 -1.1278474
-0.24699458 0.072387502 -1.1249102
-0.72197926 0.11267583 -1.1779923
-0.64973527 0.11249976 -1.178207
-0.54992837 0.11248884 -1.1785227
-0.45030731 0.11218868 -1.1791552
-0.34966642 0.11188214 -1.1785439
-0.24993411 0.11168549 -1.1787333
-0.15041858 0.1118667 -1.1799779
-0.050399441 0.1117739 -1.180108
0.049610697 0.11134493 -1.1799738
0.15009972 0.11096666 -1.1801047
0.24984038 0.11065117 -1.1802964
0.34886307 0.110351 -1.1805882
0.42762423 0.11031574 -1.180217
-0.7149598 0.038616814 -1.0597522
-0.64981097 0.032562122 -1.0597273
-0.54920185 0.033427659 -1.0650598
-0.15145712 0.041404936 -1.0778679
-0.05220785 0.046626575 -1.0771874
0.048553884 0.049628638 -1.0781802
0.1487948 0.050863493 -1.081169
0.24822088 0.051996648 -1.0847234
0.34806362 0.05321487 -1.0883793
0.42810374 0.053886984 -1.0914184
