# .PCD v0.7 - Point Cloud Data file format
VERSION 0.7
FIELDS x y z
SIZE 4 4 4
TYPE F F F
COUNT 1 1 1
WIDTH 219
HEIGHT 1
VIEWPOINT 0 0 0 1 0 0 0
POINTS 219
DATA ascii
-0.32072619 -0.28961307 -1.9034847
-0.24326085 -0.28859901 -1.9066981
-0.14817247 -0.28662217 -1.9107796
-0.049944937 -0.28650585 -1.9108431
0.044383146 -0.28810364 -1.9086112
0.12510626 -0.29164952 -1.9027426
-0.70473832 -0.34553334 -1.8017501
-0.63739145 -0.33815697 -1.8144004
-0.546049 -0.33077863 -1.828555
-0.4484596 -0.32479987 -1.8401872
-0.34963736 -0.3245523 -1.8416857
-0.24958362 -0.3246623 -1.8423368
-0.14945486 -0.32498395 -1.842634
-0.049296975 -0.32526332 -1.84258
0.049798355 -0.32571501 -1.8428239
0.14995031 -0.32581511 -1.8434966
0.24761178 -0.32804793 -1.8407208
0.34570587 -0.33465016 -1.8289568
0.43885341 -0.34256577 -1.8149962
0.50296497 -0.35005 -1.802825
-0.41853192 -0.29767284 -1.8862736
-0.34856758 -0.2962468 -1.8921169
-0.25267097 -0.29651937 -1.8931913
-0.14928783 -0.2964468 -1.8925219
-0.049142085 -0.296413 -1.8937835
0.049772106 -0.29631662 -1.8936028
0.1496536 -0.29672647 -1.8933932
0.22267468 -0.29885668 -1.8872533
-0.83125603 -0.40167728 -1.7016772
-0.74205041 -0.40128413 -1.7029066
-0.64589638 -0.40146613 -1.7020975
-0.5472281 -0.40148047 -1.7023385
-0.44621336 -0.40141046 -1.703348
-0.34869081 -0.40164104 -1.7039791
-0.24728705 -0.40217364 -1.7040222
-0.1507401 -0.40227422 -1.7037489
-0.048167169 -0.40253013 -1.7042489
0.052519321 -0.40313709 -1.7052087
0.15066572 -0.40333557 -1.7061135
0.24998893 -0.4038876 -1.7069538
0.34979296 -0.40420935 -1.7075969
0.44831195 -0.40449071 -1.7077246
0.52163053 -0.40414271 -1.7074775
-0.83771229 -0.38857371 -1.7214026
-0.74571449 -0.37742484 -1.7432065
-0.64978349 -0.37405357 -1.7503421
-0.54995161 -0.37404892 -1.7508662
-0.44990379 -0.37402251 -1.7515495
-0.34981003 -0.37444487 -1.7517556
-0.25020769 -0.37462923 -1.7524819
-0.15054096 -0.37496901 -1.7526319
-0.050690368 -0.37518635 -1.7529676
0.049889252 -0.37572649 -1.7533053
0.14957076 -0.37590036 -1.7548679
0.25006965 -0.37586865 -1.755811
0.34998211 -0.37607372 -1.7563151
0.44989148 -0.37607008 -1.7567341
0.53504163 -0.37662101 -1.7542778
-1.0193 -0.44770727 -1.6138546
-0.97359467 -0.44309571 -1.6148645
-0.82935101 -0.42186177 -1.6614013
-0.7497676 -0.42970595 -1.6494778
-0.64948517 -0.42981502 -1.6488662
-0.54967058 -0.43033269 -1.6489271
-0.449835 -0.43072864 -1.6488599
-0.35001248 -0.43134114 -1.64913
-0.25011081 -0.432358 -1.648563
-0.15052593 -0.43274355 -1.6490749
-0.050682727 -0.43344054 -1.6489406
0.050036248 -0.43433541 -1.6491637
0.14999333 -0.43521526 -1.6492077
0.2496611 -0.43636692 -1.6488043
0.34937388 -0.43693051 -1.6494733
0.4482235 -0.43685666 -1.6502852
0.54809451 -0.43609881 -1.6492289
0.64626712 -0.4384028 -1.6328807
0.74479884 -0.4434908 -1.6384475
0.81906426 -0.45617715 -1.6158892
-0.52974999 -0.39897001 -1.6995
-1.107015 -0.50391805 -1.5132301
-1.0483974 -0.50506127 -1.5097321
-0.95926285 -0.5052352 -1.5095657
-0.86709887 -0.50622153 -1.5095081
-0.72536898 -0.50594074 -1.5103623
-0.64988774 -0.50610435 -1.5107176
-0.54833251 -0.506495 -1.5111712
-0.45129111 -0.506194 -1.5121226
-0.34939063 -0.50683123 -1.5121154
-0.24871385 -0.50716949 -1.5129746
-0.15066537 -0.5079549 -1.5135835
-0.050603721 -0.50827992 -1.5147506
0.050664976 -0.50856322 -1.5161531
0.15039477 -0.5094012 -1.5160866
0.24965605 -0.50975472 -1.5172508
0.34985721 -0.51033121 -1.5176058
0.42400053 -0.50979996 -1.5186465
0.55167693 -0.51109868 -1.5188258
0.64986295 -0.51106477 -1.51941
0.74945974 -0.51096714 -1.5194601
0.84943956 -0.51111156 -1.5189965
0.91130644 -0.5092122 -1.5236295
-1.110341 -0.48748407 -1.5399776
-1.0469112 -0.47926936 -1.5560651
-0.94938028 -0.47581354 -1.55507
-0.87331402 -0.4817515 -1.5455158
-0.74345952 -0.47625533 -1.5617993
-0.64984351 -0.47884664 -1.5598143
-0.5498299 -0.47895685 -1.5601867
-0.44981468 -0.47909281 -1.5606318
-0.34981239 -0.47956949 -1.5613812
-0.24992973 -0.48010263 -1.5622126
-0.15025429 -0.48025328 -1.563307
-0.050712943 -0.48062953 -1.5642102
0.049373124 -0.4811185 -1.5649519
0.14965403 -0.48153341 -1.5659028
0.24937025 -0.48199743 -1.5667293
0.34938312 -0.48241848 -1.567593
0.43179384 -0.48012215 -1.5699906
0.56507212 -0.48384809 -1.5648197
0.64962518 -0.48298016 -1.5690019
0.74965763 -0.48306102 -1.5689973
0.84505194 -0.48408267 -1.5666115
-1.1021799 -0.51066601 -1.4982201
-1.0402703 -0.53488433 -1.4548602
-0.95283806 -0.53909034 -1.4455789
-0.84760731 -0.538508 -1.4495311
-0.74911767 -0.53617531 -1.4509093
-0.64767677 -0.53849083 -1.4507653
-0.55000937 -0.53989637 -1.4486308
-0.44937366 -0.54019761 -1.4489002
-0.34971014 -0.54147792 -1.448631
-0.24993642 -0.54238635 -1.4488986
-0.15013297 -0.54348338 -1.4484074
-0.050140716 -0.54435045 -1.4488505
0.049866948 -0.54520881 -1.4494132
0.14957756 -0.54689735 -1.448424
0.24991685 -0.5478211 -1.4489183
0.34997082 -0.54808646 -1.4492011
0.44496533 -0.54659778 -1.4347223
0.54949194 -0.54919994 -1.4492949
0.64994687 -0.55015677 -1.4488907
0.74970138 -0.55020237 -1.4487941
0.84231287 -0.54751205 -1.4539187
0.90425068 -0.52411538 -1.4953734
-1.00699 -0.60823256 -1.3206532
-0.95424515 -0.60955429 -1.3174897
-0.85294044 -0.61009169 -1.3176361
-0.74914241 -0.61059296 -1.3191042
-0.64948356 -0.61067289 -1.3193678
-0.5500223 -0.61119688 -1.3193572
-0.44930217 -0.6114462 -1.3206183
-0.34935477 -0.61219984 -1.321661
-0.24969104 -0.61278749 -1.32216
-0.14955303 -0.61295658 -1.3231806
-0.050127003 -0.61339653 -1.3239911
0.050376497 -0.61389649 -1.3249308
0.15036845 -0.61448562 -1.3261845
0.24998489 -0.61505568 -1.3266547
0.34963548 -0.61512518 -1.3279535
0.45013231 -0.61561352 -1.3277277
0.54972118 -0.61594838 -1.3278079
0.64969289 -0.61620957 -1.3291728
0.74934649 -0.61654657 -1.3300264
0.81366181 -0.61358488 -1.3355448
-1.0192072 -0.58006847 -1.3718958
-0.94786072 -0.58153832 -1.3642803
-0.85019344 -0.57922137 -1.3641717
-0.54936582 -0.58347863 -1.3690674
-0.4499459 -0.58375019 -1.3702202
-0.35029161 -0.58446747 -1.3711644
-0.25027636 -0.58488262 -1.3719763
-0.15075779 -0.58527285 -1.3726041
-0.050507095 -0.58577913 -1.3736168
0.049356423 -0.58625019 -1.3747345
0.14954789 -0.587098 -1.3756988
0.24931361 -0.58763862 -1.3763764
0.3491154 -0.58760333 -1.3780534
0.44882125 -0.58807683 -1.3776648
0.54892546 -0.58809626 -1.378287
0.64893305 -0.58875346 -1.3787317
0.74907762 -0.5887208 -1.3798205
0.82418126 -0.58759665 -1.380916
-1.001325 -0.62156004 -1.2970251
-0.93894356 -0.64633185 -1.2472847
-0.86004007 -0.6478619 -1.2434864
-0.74202496 -0.64382124 -1.2407736
-0.64919835 -0.65225548 -1.2431858
-0.54950809 -0.65316039 -1.2425917
-0.4496662 -0.65378296 -1.2427984
-0.34968084 -0.65502238 -1.2425148
-0.24981505 -0.65604025 -1.242046
-0.1503209 -0.6570667 -1.241886
-0.050271098 -0.65805227 -1.2416399
0.049884565 -0.65922415 -1.2415214
0.14954938 -0.6600616 -1.2417237
0.24975587 -0.66150969 -1.2411664
0.34972155 -0.66251314 -1.2406691
0.44948468 -0.66313648 -1.2404774
0.54951769 -0.66411895 -1.2396483
0.64929634 -0.66459233 -1.2400802
0.74198985 -0.66408777 -1.2429923
0.80270886 -0.63778144 -1.2901186
-0.92723662 -0.67972052 -1.1868243
-0.85871232 -0.67643857 -1.1810509
-0.64949405 -0.68197596 -1.1877952
-0.54958123 -0.68228078 -1.1879654
-0.44975457 -0.68275797 -1.1888455
-0.34976047 -0.68336678 -1.189427
-0.24946606 -0.68391597 -1.1901356
-0.14960986 -0.68444127 -1.1905837
-0.050257701 -0.68510163 -1.1913608
0.049443442 -0.68565923 -1.192158
0.14945032 -0.68627137 -1.1929716
0.24965043 -0.68680644 -1.193549
0.34952343 -0.68755752 -1.1944194
0.44950217 -0.68772715 -1.1946075
0.54904646 -0.68818498 -1.1950932
0.64851135 -0.68838781 -1.1954259
0.73215669 -0.68895757 -1.1961585
