# .PCD v0.7 - Point Cloud Data file format
VERSION 0.7
FIELDS x y z
SIZE 4 4 4
TYPE F F F
COUNT 1 1 1
WIDTH 1553
HEIGHT 1
VIEWPOINT 0 0 0 1 0 0 0
POINTS 1553
DATA ascii
7.1587501 -7.0353575 1.7579886
6.6940241 -6.9958239 1.6712235
6.9011116 -6.9436569 1.6796976
7.2994738 -6.9105597 1.7378068
7.4607997 -6.3396254 1.6996346
7.6002316 -6.0129938 1.6564279
4.0367918 -5.8050575 1.6450675
3.9458747 -5.6684074 1.6279526
4.1321416 -5.6770086 1.6608304
4.3140097 -5.7177663 1.6698817
4.4163704 -5.7237878 1.6349859
7.120472 -5.7628398 1.6200264
3.9647858 -5.5261631 1.7350173
4.0924726 -5.4663687 1.6950885
4.3063974 -5.4481173 1.7355917
7.5957179 -5.5688353 1.6200289
8.0178337 -3.400475 1.7531745
6.3752995 -3.2452998 1.7622488
8.0713959 -3.3140841 1.68768
6.3430319 -3.022769 1.7455486
6.4505167 -3.0340948 1.7123437
8.1312819 -3.0879364 1.6859664
4.7739649 -2.835572 1.7319921
6.4938626 -2.9213734 1.6979744
8.1697521 -2.9209099 1.7373586
8.2330656 -2.8653719 1.7460423
4.748713 -2.6730254 1.7167337
4.8085628 -2.6475608 1.6453254
5.0297389 -2.6118612 1.7884337
8.2235909 -2.6993675 1.7112075
3.1462271 -2.4756656 1.6272776
4.0668678 -2.5399518 1.7893273
4.2857256 -2.4590249 1.7978756
4.4807243 -2.4763191 1.7898269
4.7193375 -2.5389128 1.7751907
4.8440189 -2.5772967 1.7121856
8.2743893 -2.5135541 1.6710491
2.3821018 -2.2159958 1.7265229
2.4459088 -2.2272687 1.6344352
2.708539 -2.239944 1.6421052
2.9342439 -2.2864199 1.7412431
3.0760384 -2.2853837 1.7071741
3.2882943 -2.2711415 1.7399664
3.4899883 -2.3497849 1.7733344
4.0830002 -2.3874199 1.7882279
4.8435383 -2.306648 1.6530848
8.3062429 -2.3182244 1.6505619
1.5386078 -2.0048051 1.6142973
1.9016368 -2.0685334 1.7884033
2.0838456 -2.1317027 1.7830166
2.3294764 -2.1577985 1.6951802
2.4450455 -2.1507437 1.7605307
2.6228499 -2.1657441 1.7269574
2.9163468 -2.1638582 1.7720723
3.2956798 -2.1639652 1.6926255
4.9435015 -2.0985789 1.7216189
5.020402 -2.059175 1.6442046
8.3563871 -2.1211808 1.6770661
8.4139977 -2.0804036 1.7603886
0.67246747 -1.8161268 1.7207503
0.95726675 -1.8584135 1.7077309
1.1346767 -1.8863947 1.7397082
1.3110925 -1.8877549 1.7425029
1.5149558 -1.956576 1.6523449
1.630318 -1.9401183 1.6790974
2.1061234 -1.9977634 1.7926048
4.9589148 -1.9940342 1.6927489
5.0533357 -1.9637812 1.6192772
8.3656359 -1.9392425 1.7111161
8.4196901 -1.9020337 1.6975875
-0.099946901 -1.617494 1.6655962
0.13610411 -1.6615233 1.7363489
0.25260961 -1.6833065 1.728207
0.50169873 -1.7331491 1.7304726
0.70050657 -1.7826493 1.6694674
0.84640139 -1.7342657 1.7633893
1.1356468 -1.7805638 1.7709501
1.2814269 -1.7952662 1.7617599
8.3998842 -1.6882734 1.7108591
8.4475842 -1.7333195 1.6548609
-2.785497 -1.5586407 1.7964051
-0.79566669 -1.4630995 1.6058271
-0.48619729 -1.5477848 1.6053302
-0.12722437 -1.5659666 1.6850139
0.06531024 -1.5634272 1.7219439
0.28409219 -1.5879381 1.7810407
8.4782887 -1.4695663 1.6988927
-4.6742859 -1.2231076 1.6869674
-4.3268929 -1.2347646 1.7693095
-1.8775144 -1.2732265 1.6377106
-1.7473648 -1.2498846 1.6361721
-1.3869755 -1.3371036 1.7071619
-1.0540066 -1.2141659 1.751932
-0.96192598 -1.3615648 1.6511931
8.531805 -1.3277 1.690237
-6.1861525 -1.0362744 1.6366589
-5.01261 -1.0420761 1.7626691
-2.5217118 -1.1571136 1.6457182
-2.2163186 -1.1085992 1.741353
-1.7130477 -1.0682445 1.7028368
-1.5976491 -1.081599 1.7282108
8.5678196 -1.0738164 1.6681092
-6.7664194 -0.96615207 1.7382381
-4.4869032 -0.84249479 1.7115828
-4.226676 -0.89519346 1.7576782
-1.6701307 -0.9131667 1.6575696
8.5757217 -0.93209887 1.6287301
8.6125011 -0.93328279 1.6649735
-7.4947934 -0.63703191 1.717689
-7.0599957 -0.68822742 1.6130377
-5.3708181 -0.60895944 1.6244462
-5.0762358 -0.61266482 1.6055981
-4.2512689 -0.65295035 1.7908326
-1.7056487 -0.73236203 1.6908668
8.5936546 -0.79141814 1.7102363
8.6584997 -0.66917181 1.6890454
-7.5917053 -0.51834399 1.7388126
-6.6607943 -0.44293642 1.7030619
-6.5148144 -0.40150207 1.684355
-6.2782249 -0.46803147 1.6959267
-6.1187334 -0.43098354 1.6974654
-5.9092016 -0.41550612 1.6560116
-5.7245126 -0.46672446 1.7381263
-5.3662138 -0.46474952 1.7197835
-5.0544181 -0.52025616 1.7181617
-4.7011862 -0.57358956 1.7770631
8.6550179 -0.55047566 1.7281238
-7.0842142 -0.23053919 1.7155604
-6.9852204 -0.21842128 1.6383162
-6.7594295 -0.29755557 1.7175862
-6.5020523 -0.27132368 1.6892734
-6.3710909 -0.28113663 1.6527953
-6.1146507 -0.25013879 1.7193005
-5.8923473 -0.37588578 1.7156014
-5.7113714 -0.3675347 1.7248851
8.6890726 -0.34289682 1.69068
-8.0847034 -0.19179562 1.7633433
-7.7031565 -0.10292946 1.6898479
-7.4615173 -0.036863245 1.7667234
-7.3035259 -0.041245751 1.7670528
-7.0409088 -0.12213206 1.7371035
-6.9341965 -0.10078667 1.7395117
-6.7212238 -0.12675832 1.7185212
-6.5709114 -0.16739103 1.7636434
-6.3389177 -0.15899342 1.6549578
5.3568211 -0.018384412 1.6230347
8.7683945 -0.12868707 1.6930532
-8.5960913 0.19469839 1.6311313
-8.3388891 0.10958548 1.674111
-7.8832054 0.12568241 1.7296147
-7.6950169 0.12974575 1.7335289
-7.5390806 0.044292144 1.7599287
-7.3436127 0.0079024136 1.7863672
-7.115684 0.020193808 1.7971549
-6.8276958 0.0044542551 1.6344619
5.1971235 0.14058641 1.654303
5.3423223 0.0068923333 1.7085581
8.7837601 0.074560478 1.7007186
8.8103371 0.12357054 1.6730375
-8.6721468 0.26675713 1.7405956
-8.5135078 0.35896045 1.7097416
-8.3211489 0.28278041 1.7325685
5.316184 0.30450365 1.6547993
8.8576641 0.25781932 1.6726414
-8.6724348 0.57899082 1.6947594
-8.5561018 0.43517834 1.6663318
-8.2140703 0.57508218 1.6971539
-8.1956596 0.54610932 1.7429737
5.3281708 0.41397113 1.7270703
-8.6547413 0.77074075 1.6702302
-8.2302818 0.71063209 1.6352837
-8.1838074 0.6915704 1.7510917
2.074013 0.76595205 1.7519207
8.9296551 0.69187993 1.6576142
-8.6506767 0.94478166 1.7432122
-8.3540258 0.82464188 1.673728
1.9772689 0.91149902 1.7254031
2.0364728 0.88508773 1.6965444
-8.5374632 1.1216121 1.7128278
1.9983227 1.0140095 1.647156
2.0286191 1.0484889 1.6667719
8.9597282 1.0255414 1.7249165
9.0205498 1.0766973 1.7472464
-8.477829 1.3551178 1.6824329
9.1222363 1.3816332 1.661469
-8.4627314 1.4778734 1.7192013
-1.2636902 1.5173702 1.7017757
-1.1845844 1.5671777 1.7078944
9.0854778 1.5000774 1.684921
-8.4821281 1.6293339 1.663254
-8.375246 1.7631969 1.6934932
-1.155406 1.7404091 1.713523
8.5224552 1.7922902 1.6464975
8.6552219 1.7754622 1.7818555
8.9888468 1.7029228 1.6818287
9.020896 1.6877462 1.7225161
-8.4232998 1.9514397 1.6497557
-8.3556805 1.9210279 1.6984762
-1.1781303 1.8485528 1.7136223
7.0630174 1.9967741 1.6250893
7.5245371 1.9796131 1.6581025
7.7495971 1.9663529 1.6591117
7.8695364 1.9424109 1.6341318
8.1413517 1.8804419 1.6467366
8.2742786 1.8574412 1.7032712
8.526145 1.8104225 1.6107891
-8.3288975 2.1465602 1.6350791
-4.5258408 2.1638823 1.729965
6.5228586 2.1891387 1.6947845
6.6503439 2.1829586 1.6207422
6.9062929 2.1397734 1.6335475
7.0384426 2.1232939 1.6495464
7.2717381 2.0740972 1.631531
7.4720173 2.0278997 1.6634542
-8.3551702 2.3395624 1.7003529
-4.4942765 2.2668171 1.7615168
-4.3649788 2.3848505 1.751205
5.5588684 2.3851085 1.6519446
5.6843209 2.3791552 1.6045642
5.8747191 2.3694336 1.6602298
6.1165385 2.2887297 1.6857266
6.2976222 2.275727 1.6564512
6.4747477 2.2214825 1.6141686
6.6557302 2.2077918 1.6302519
-8.2620096 2.5154586 1.6892247
-4.4201999 2.5249133 1.7138089
4.6822119 2.5759449 1.6946591
4.8713865 2.5560617 1.6485587
5.1584892 2.5048106 1.6331518
5.2773495 2.4933701 1.6151793
5.4583282 2.4546027 1.6543261
5.6407142 2.4222035 1.6889532
-8.2501278 2.6729708 1.7241836
-8.1691093 2.7443855 1.703639
3.743619 2.785893 1.6793071
3.9311564 2.7569876 1.6698771
4.073751 2.7145765 1.6981926
4.3222122 2.6776738 1.6895421
4.5589542 2.6331544 1.7179915
4.6514206 2.613955 1.6687105
2.9801612 2.9438653 1.7302824
3.0517941 2.9244246 1.7168062
3.3397746 2.8802328 1.7256553
3.6323304 2.8211596 1.7792244
1.9188182 3.1720879 1.7285383
2.1643295 3.1164064 1.6096117
2.250222 3.1332331 1.6567358
2.5819871 3.0708156 1.6326921
2.920095 3.0003285 1.6716809
-8.1301632 3.2373486 1.7749889
0.95539755 3.3784132 1.7218146
1.3163676 3.3216493 1.7517145
1.7846308 3.2251272 1.7737842
2.0165317 3.2031937 1.6669732
-0.11342793 3.584815 1.6508355
0.52071512 3.4671748 1.7669389
4.1988602 3.4702044 1.6620294
4.4403687 3.5351782 1.7517833
-1.3574169 3.7993057 1.7698655
-0.91774708 3.728498 1.6958374
-0.71910131 3.6877532 1.7436464
-0.48656642 3.6750875 1.7130424
-0.34781227 3.6366763 1.788903
-0.079666615 3.6928241 1.7654138
0.18464744 3.603128 1.778688
-7.9801521 3.8664789 1.6534828
-4.2480607 3.8607988 1.7689154
-2.0966291 3.9583607 1.691414
-1.8346472 3.9175003 1.6391186
-1.6461828 3.8714685 1.788444
-1.4827402 3.847928 1.7063353
-8.0231123 4.1057386 1.6934583
-3.2795162 4.1456499 1.6387771
-3.0473151 4.1645012 1.7388563
-2.8488712 4.1484504 1.7264354
-2.6611819 4.0784559 1.6940813
-2.4951811 4.0605793 1.6829464
-1.7569311 4.0173168 1.7036054
4.3822074 4.1481886 1.7042967
-4.4403009 4.3825436 1.6980996
-4.2316771 4.2814789 1.7136
-4.0985441 4.33284 1.701699
-3.9131489 4.3181829 1.7214544
-3.7518249 4.3196812 1.661919
-3.4191201 4.2435794 1.7748569
-7.9245281 4.5880551 1.7441617
-5.581974 4.5687141 1.654925
-5.0155382 4.5429277 1.7980621
-4.9201145 4.5471935 1.7124093
-4.6823215 4.443738 1.6778704
-4.5892057 4.4458647 1.6850674
-4.2553596 4.4151683 1.6409279
-4.08599 4.4863458 1.6470833
-3.5339081 4.4247274 1.6820276
-7.8649378 4.7741213 1.6503232
-6.4195957 4.7969017 1.6110224
-6.1340628 4.7772856 1.7255955
-5.9520512 4.7234163 1.7112355
-5.7197733 4.7191286 1.7073257
-5.4859166 4.6562948 1.7428753
-5.2829504 4.6363716 1.6630933
-5.0181503 4.7319694 1.7949796
-7.8078985 4.9740763 1.6985354
-7.7770853 4.9507151 1.7435617
-7.4403644 4.9452858 1.6522564
-7.1064734 4.9588566 1.688717
-6.8158822 4.9298086 1.6474559
-6.7013388 4.9165907 1.7222512
-6.535553 4.8378458 1.7213778
-6.2890286 4.8269949 1.6974322
-6.0074005 4.8296356 1.7399999
-5.5211959 4.8317642 1.6950924
-7.8070254 5.0462027 1.6658055
-7.7485638 5.031291 1.6772051
-7.4351478 5.0398479 1.7231679
-7.334578 5.0069332 1.6711727
-6.7446375 5.0377479 1.6103407
-7.6960959 5.2902422 1.732053
-7.1624842 5.2059879 1.669848
6.220377 -15.692197 1.8880091
6.4682617 -15.760265 1.8593944
6.0061555 -12.994109 1.9801354
3.6915956 -12.607167 1.9997275
4.56564 -12.755253 1.936722
4.9892163 -12.791759 1.8720183
3.1288035 -12.42229 1.9702208
3.4191287 -12.533585 1.9628848
3.7378018 -12.553482 1.8419435
4.0938582 -12.575678 1.8460791
2.3483427 -12.208767 1.9709193
2.5779402 -12.332448 1.9703155
2.9201136 -12.252476 1.8240741
-0.19067144 -11.812161 1.9894212
2.3112655 -11.859974 1.9301169
2.7236774 -11.917128 1.9154762
2.876539 -11.93698 1.8907301
4.6854515 -11.99778 1.911353
6.2543116 -11.850647 1.9328041
-0.87398481 -11.618286 1.8622148
-0.63656271 -11.647899 1.9159218
6.3254194 -11.64403 1.8439662
-1.0507879 -11.558095 1.8683411
0.043349981 -11.492655 1.9278592
4.6006079 -11.442726 1.9878951
4.9745646 -11.457023 1.8454231
6.3243246 -11.44152 1.9071147
6.4004126 -11.470827 1.8308032
1.7122365 -11.235504 1.8982744
1.8137038 -11.236563 1.8223675
2.133544 -11.282644 1.8790219
2.2568479 -11.257437 1.8603241
2.5027359 -11.318081 1.8735673
0.88945663 -11.050193 1.8625317
1.7177436 -11.162336 1.8668065
0.31709135 -10.867688 1.8224635
0.50659132 -10.92131 1.8608452
0.65329528 -10.963429 1.8676302
4.6653738 -10.960721 1.9147053
0.15466285 -10.781817 1.8816235
1.5738389 -10.684319 1.968166
4.8606052 -10.765687 1.9045041
5.048512 -10.393525 1.8643912
1.5520523 -10.016378 1.825846
1.6865635 -10.078165 1.8139317
4.9516602 -9.7614689 1.8433287
6.7557979 -9.7916927 1.8202878
5.0302 -9.4951954 1.817862
6.810935 -9.3973656 1.9284798
1.8705169 -9.0242825 1.847538
2.1349826 -9.1747799 1.8302953
6.3776836 -8.4120665 1.8497357
6.3767395 -8.3116932 1.8662454
6.4184852 -8.2826653 1.8075407
6.6957793 -8.210968 1.8921412
6.6599398 -8.1816626 1.8970878
6.6352735 -7.8328466 1.8660154
1.2171774 -7.5670962 1.9933589
6.694809 -7.4168267 1.8918443
0.90131545 -7.3315578 1.9889647
1.7109256 -7.1553402 1.9864421
1.4353766 -6.9623833 1.9548954
6.8998632 -6.742846 1.8007722
7.3588572 -6.6822624 1.815196
7.4001374 -6.6946554 1.8913913
7.5559635 -5.9266529 1.8488247
3.9515009 -5.5466423 1.9387909
4.0485468 -5.4412093 1.801796
4.3414168 -5.4494696 1.8265719
7.9583201 -3.6728334 1.9074388
8.0452642 -3.6356058 1.839913
7.9716172 -3.4106586 1.8770354
8.0400696 -3.4377551 1.8655112
7.1491957 -3.2189667 1.905966
7.2719059 -3.2429607 1.9088007
7.4885883 -3.2639389 1.9034898
7.699244 -3.3277564 1.9466062
7.8832483 -3.3254199 1.8724704
8.0476112 -3.3432896 1.869822
6.7251635 -3.0165806 1.8741963
6.9734421 -3.006742 1.904494
7.1061382 -3.1190431 1.9036043
7.3374481 -3.1257463 1.9086406
7.482615 -3.1088905 1.9458671
7.6668229 -3.1501608 1.9396427
7.8075037 -3.1863136 1.9390978
8.1126137 -3.1378691 1.8607128
4.6707401 -2.9482868 1.9509208
5.4920602 -2.8315058 1.8396404
5.6325994 -2.889364 1.881006
6.5046225 -2.9438691 1.8335851
6.7745881 -2.8900027 1.9801375
6.8562512 -2.9382093 1.9430964
7.1189699 -2.9777141 1.9856727
7.2497988 -2.9896827 1.978376
8.1705532 -2.927331 1.8164809
8.2135353 -2.9088535 1.885816
4.2395458 -2.6203589 1.8611956
4.5510225 -2.6275601 1.8512597
4.6847148 -2.6828091 1.837688
4.9021044 -2.6050727 1.8805051
5.0464458 -2.650346 1.8675643
5.3558497 -2.7406144 1.87467
5.6631021 -2.7303035 1.8769112
6.1232171 -2.7124109 1.8884058
6.4134469 -2.7929442 1.9073172
8.2287407 -2.6842077 1.9214976
3.5374207 -2.4146898 1.8037727
3.6222625 -2.4736938 1.8962755
3.9305496 -2.4683263 1.8411372
4.053122 -2.5496209 1.8236277
4.2822657 -2.527966 1.851491
4.518075 -2.5313523 1.8802837
4.6852436 -2.5238056 1.8891232
4.8295641 -2.5712459 1.8509579
8.2627077 -2.5075302 1.9198897
2.3125484 -2.2412004 1.8002151
2.9408216 -2.2465167 1.8205078
3.0801435 -2.2537684 1.8391761
3.2849178 -2.2537999 1.8941619
3.5059056 -2.3623514 1.8377697
3.730725 -2.3226819 1.9127661
3.8747942 -2.2900739 1.9469149
4.1341023 -2.3686523 1.9381769
4.3091516 -2.3869367 1.9678192
4.4229555 -2.3870678 1.9238591
4.6653991 -2.3578587 1.9519157
4.8576241 -2.2836881 1.8923109
8.3320808 -2.2467353 1.9048706
1.9094291 -2.1305072 1.8005794
2.1241345 -2.1035528 1.8110577
2.3065057 -2.1146688 1.8481598
2.473814 -2.066067 1.8590729
2.7016363 -2.1203167 1.8614857
2.8538635 -2.1639404 1.8624227
3.0926714 -2.1811886 1.8971251
3.3321033 -2.1789188 1.9520532
3.4567666 -2.1861694 1.9456496
3.7482979 -2.1907461 1.9140122
4.9883213 -2.0220168 1.8319938
5.0103984 -2.0372753 1.9204352
8.35326 -2.0251639 1.8824496
0.96704209 -1.8218799 1.8169645
1.5345238 -1.8338919 1.8769321
1.6710031 -1.846437 1.9113324
1.9295834 -1.9388884 1.9056447
2.0650175 -1.980958 1.8719509
2.2451301 -1.9648379 1.8972226
2.4481859 -1.9903936 1.9265234
4.9669976 -1.9854666 1.9280496
5.0062704 -1.9207491 1.8953022
8.3765268 -1.9428947 1.8766775
0.092366219 -1.612676 1.8629124
0.35281062 -1.6677485 1.8586361
0.50430799 -1.6205963 1.9031757
0.7300781 -1.6882937 1.8712597
0.90327179 -1.7307448 1.8873618
1.162744 -1.7611624 1.8758988
1.2755892 -1.778941 1.8680172
1.5069947 -1.7978632 1.9367793
8.3978777 -1.7647066 1.9101321
8.4283142 -1.6757897 1.8955567
0.11674216 -1.5487595 1.8363667
8.4760466 -1.4535801 1.8395232
8.5135326 -1.2377055 1.8926108
-5.8132806 -1.0108944 1.8445419
-5.4561663 -1.0579373 1.8572061
-1.420553 -1.1264684 1.8326888
8.5400467 -1.1329863 1.8726964
-1.6919675 -0.97214472 1.9144448
8.562974 -0.99454492 1.8476497
8.6303053 -0.91230029 1.9432755
-3.9257572 -0.64734024 1.9044135
-1.7128849 -0.79563582 1.9199519
8.5925655 -0.66532367 1.884164
8.6400547 -0.69623244 1.8937788
-8.3381481 -0.46588659 1.9116282
8.6565275 -0.49532533 1.9367965
-7.2140851 -0.25745159 1.8687561
-7.0202813 -0.28138864 1.8233505
-6.4780769 -0.2123802 1.8369349
-6.116221 -0.2678456 1.8220513
-5.4851151 -0.34277695 1.8404359
-4.9645777 -0.3616206 1.8810883
-4.6374521 -0.37067336 1.8837147
8.7122631 -0.32916507 1.8480077
-8.4369268 -0.10623151 1.8190084
-7.2794123 -0.023171995 1.8153524
-7.1034403 -0.03418307 1.8247811
-6.9114819 -0.10558764 1.8270637
-6.7215614 -0.13407388 1.8512647
-6.523283 -0.15832563 1.8221385
-6.2914572 -0.18433064 1.868149
5.2929912 -0.0045015067 1.8442631
8.7307997 -0.13300651 1.8324811
8.8103848 -0.076608092 1.8518387
-8.0288067 0.11572096 1.8290609
-7.8842583 0.069476038 1.8096368
-7.7047348 0.10479002 1.8173959
-7.4864249 0.09312135 1.8723714
-7.1373177 0.042213298 1.8695841
-6.7125297 0.051788598 1.8969847
-6.3816938 0.016292095 1.8008479
5.3616562 0.025127139 1.8905426
8.8422499 0.12874375 1.9443333
-8.6380444 0.30739582 1.9200833
-8.5106411 0.32605991 1.8355302
-8.2294626 0.34629783 1.9550219
-8.0144682 0.25850081 1.8923373
5.2688551 0.29278961 1.9065797
5.4181719 0.39005375 1.8104312
8.7933121 0.21750568 1.8870926
-8.6212397 0.46785212 1.9552126
-8.2635546 0.55584097 1.8417902
-8.1884232 0.56754482 1.9177325
5.3854613 0.43494809 1.8996723
5.4176626 0.45697993 1.9413521
-8.6765785 0.75489151 1.9204234
-8.2410145 0.67687964 1.8367876
-8.1982288 0.67198932 1.8445255
2.0834184 0.78206182 1.8908544
8.8878374 0.67661262 1.8222307
-8.6618757 0.85678577 1.8674414
-8.2628784 0.81034768 1.9259863
1.9570816 0.95170164 1.8432169
2.0548072 0.85938805 1.9645493
8.9241734 0.81475407 1.8910329
-8.6687183 1.02562 1.9668949
1.9809608 1.0962893 1.9023869
2.0898027 1.1419321 1.8355043
9.0043736 1.0913196 1.8403115
-8.6125975 1.2103591 1.9818428
-8.4955606 1.3618613 1.8230011
2.1696239 1.225842 1.9184678
2.2284513 1.2807984 1.9466476
-8.5180664 1.4254156 1.813197
-8.3733788 1.5586734 1.8530941
-1.2817822 1.5302788 1.9059587
9.0837326 1.4750948 1.8316039
-1.2312812 1.733094 1.8663698
-1.1481915 1.7003247 1.9095037
8.7134161 1.754847 1.9223201
8.8818464 1.6997595 1.9019399
9.083478 1.671237 1.8835449
-8.4785032 1.8478448 1.840623
-1.163028 1.8115463 1.8176932
2.4614904 1.9947667 1.9911799
5.796546 1.9223197 1.9927717
7.2151651 1.9940636 1.9134809
7.5284219 1.988539 1.9071543
7.7436132 1.9323859 1.8851048
7.8919129 1.9084442 1.8747847
8.0881948 1.8747035 1.8785558
8.32411 1.8134048 1.887742
8.4070034 1.8197427 1.8656176
-8.4117279 2.189908 1.8960133
-4.5364571 2.1891077 1.8100561
-1.2345846 2.1928825 1.9847008
2.5060275 2.1737919 1.9877701
5.8484049 2.1768706 1.9617536
6.5502849 2.189353 1.8517394
6.6465554 2.1727891 1.8923017
6.9125862 2.1338463 1.9403777
7.1362929 2.0786417 1.8528832
7.2671084 2.0503044 1.9313831
7.4768219 2.0105433 1.9394612
7.6648679 2.0093985 1.893002
-4.5126743 2.2316511 1.8834286
-1.141912 2.3106351 1.9891647
2.3406153 2.3112569 1.9983882
2.5158243 2.275331 1.9926455
5.7365875 2.3804598 1.9340801
5.9485331 2.3168812 1.9511214
6.0826383 2.2923715 1.8411927
6.357904 2.2407384 1.8545998
6.4448276 2.2205167 1.8846697
-8.3323431 2.5623705 1.9080333
-5.9586983 2.5165908 1.9777027
-4.4270973 2.4629164 1.880397
-4.3456945 2.5268424 1.8846929
-1.2030072 2.5600166 1.954644
2.5724685 2.4965494 1.9708729
2.6079972 2.4487269 1.9873517
4.7108846 2.5887103 1.9115338
4.8725681 2.5579305 1.9605108
5.0230551 2.5451245 1.8697664
5.286674 2.5056441 1.8158011
5.5001607 2.4278564 1.940861
5.6784277 2.4147592 1.9224017
-1.2007632 2.6155381 1.9263524
-1.1531143 2.7066145 1.938369
2.5277114 2.6627605 1.9820158
2.6293797 2.6840518 1.9585967
3.7682447 2.78196 1.8885938
3.8744197 2.7610867 1.890977
4.0268917 2.7399144 1.9568336
4.2354403 2.6954288 1.9442134
4.4775887 2.6372283 1.8798213
4.6705465 2.6357985 1.8629279
-2.7410483 2.9146447 1.99431
-1.0549819 2.9323511 1.9286362
2.5956476 2.8567154 1.9441998
2.6865044 2.8852267 1.9519806
3.569761 2.8285656 1.871698
3.696104 2.817585 1.8957614
-8.229682 3.0469718 1.8787251
-1.0931826 3.0625727 1.8772334
2.5417233 3.0593235 1.9628723
2.732163 3.0049543 1.8918211
-2.6147966 3.3043189 1.9745266
-2.5062346 3.3268843 1.9847585
-1.037495 3.3118196 1.8589516
-7.981709 3.5375016 1.8235402
-4.3046932 3.4899178 1.8967954
-1.0224601 3.471777 1.8724012
-0.9487524 3.4338553 1.8946056
-0.77953339 3.5923991 1.9833317
0.1450963 3.5440695 1.8193703
-4.2646937 3.739018 1.8125508
-4.1342335 3.7780292 1.9215702
-1.0687025 3.7381892 1.8670055
-0.85007173 3.7423506 1.8666768
-0.75036758 3.7178528 1.9134368
-8.0408401 3.8854268 1.8135891
-2.1452427 3.9550476 1.8260581
-1.8643295 3.905354 1.8997669
-1.7785966 3.9181771 1.8811624
-1.3875146 3.8168435 1.9431331
-0.70318866 3.8347504 1.9084375
5.1037831 3.9743645 1.9737974
-4.2366838 4.0608988 1.8144178
-3.2108071 4.1713247 1.8713826
-3.1386204 4.1680756 1.8992584
-2.8672678 4.1254969 1.872962
-2.5179358 4.038938 1.8945622
-2.3118238 4.0295467 1.8880178
-2.1748574 4.0673265 1.8227247
4.8320971 4.0417595 1.829983
-7.9725513 4.3260012 1.8248988
-4.2140918 4.3232212 1.8830206
-4.0456734 4.3304167 1.8142575
-3.9628322 4.3357229 1.9188211
-2.8172948 4.2225161 1.9626133
-4.8928728 4.5737343 1.9290771
-4.3887825 4.4736319 1.958528
-4.0097895 4.4001913 1.8672599
-3.901587 4.4666195 1.8560904
-6.4412622 4.7906313 1.8269795
-6.1415868 4.7546587 1.9076061
-5.8457303 4.726933 1.911096
-5.7378597 4.7049465 1.9469355
-7.0289569 4.9770579 1.8835461
-6.9119735 4.9292135 1.9556146
-6.7117577 4.9041519 1.8038715
-6.4712038 4.905158 1.9029678
-6.1811838 4.8632326 1.8854326
-5.8138561 4.8937321 1.8442398
-7.8016939 5.1030354 1.9198642
-7.7319231 5.1079025 1.8725712
-6.6233797 5.0736661 1.827669
-7.6474528 5.2539492 1.9392864
-7.3876219 5.2458472 1.800559
5.7168121 6.1345801 1.9589305
5.0453134 6.2837415 1.9049323
3.7227736 6.591917 1.9474626
4.4518795 6.5257545 1.9335424
6.2043695 -15.693566 2.1715178
4.2089458 -15.254865 2.1875236
3.3588428 -15.092365 2.1009102
3.8889575 -15.167553 2.196075
2.2313385 -14.847225 2.1496637
2.6932397 -14.926373 2.1937668
-0.90623617 -14.225363 2.1929703
5.905571 -13.010297 2.1365137
5.0842748 -12.830853 2.1281579
6.0147371 -12.889843 2.0764406
4.2418442 -12.655954 2.1235828
2.9460773 -12.41552 2.0757074
3.0987768 -12.428314 2.1839633
3.8752782 -12.578054 2.1278057
6.0931182 -12.558514 2.1195924
6.1572914 -12.244354 2.1231401
2.7867501 -11.890488 2.184648
2.8491902 -11.915702 2.1299858
3.1346142 -11.976105 2.035774
-0.51310062 -11.653997 2.1412446
-0.21331543 -11.685684 2.1864996
-0.64393878 -11.553155 2.1371865
-0.097526908 -11.489299 2.1168694
2.1935565 -11.22465 2.0014005
2.291893 -11.239904 2.1045432
2.4959564 -11.310561 2.1294129
2.7599304 -11.29131 2.0380123
1.5301565 -11.037397 2.1021042
1.8075716 -11.103989 2.1397579
2.1229088 -11.173321 2.1403556
0.098537922 -10.847593 2.0496082
0.329521 -10.869066 2.0717883
0.42261958 -10.866952 2.0660441
0.66360664 -10.857181 2.1354487
1.0283674 -10.944556 2.068552
6.4420147 -10.993988 2.1821928
0.17442608 -10.777584 2.0750275
0.20152903 -10.795712 2.0543406
6.5374827 -10.629622 2.180301
6.5582705 -10.491591 2.1513674
6.627161 -10.283258 2.1335669
6.6779413 -10.104649 2.021678
1.2593806 -9.8897648 2.1982572
2.2774653 -9.8949366 2.1751463
4.9714117 -9.8006105 2.1873908
6.7087741 -9.8639336 2.0805597
0.86902022 -9.6464043 2.1834428
1.3440292 -9.5465899 2.1502471
1.4216056 -9.474 2.1937959
1.6501398 -9.4554644 2.1957793
3.4920218 -9.5206394 2.0596893
4.1302228 -9.4157324 2.0523605
5.1054301 -9.4941282 2.1925356
6.7566261 -9.4484501 2.0616188
0.50495553 -9.2869349 2.1457956
0.66674769 -9.3378696 2.1326506
1.0143065 -9.3659554 2.1716161
1.4467757 -9.2290926 2.1835229
2.3105068 -9.2505264 2.0868478
2.7299066 -9.3114891 2.0957713
2.90207 -9.3718004 2.1943517
3.860353 -9.3606491 2.1695738
4.1831026 -9.3252468 2.1620722
4.5999212 -9.3587046 2.1038709
6.1036053 -9.3063631 2.185113
6.8176956 -9.3715916 2.1133828
0.57881093 -9.0591545 2.1278226
1.3184353 -9.1398907 2.1829925
1.7296517 -9.0478516 2.1786122
2.5429397 -9.0883417 2.1869125
2.777874 -9.0069284 2.127897
2.9639826 -9.0536165 2.1544061
3.3179402 -9.0854034 2.1823053
5.4555087 -9.1445999 2.1391838
5.7666225 -9.0335827 2.1436489
5.8834753 -9.0544634 2.1802664
6.1105347 -9.0114536 2.1946805
6.4028473 -9.0369864 2.1757095
0.20581919 -8.9281969 2.105356
0.97749919 -8.9893208 2.1712725
1.8582838 -8.9036236 2.1706944
2.1330183 -8.9049511 2.1592813
2.2651415 -8.9562073 2.1839359
2.6018195 -8.9755907 2.1351452
3.3006947 -8.8454905 2.1189108
3.6822617 -8.901886 2.1835256
4.1386428 -8.9568739 2.1888835
5.4213543 -8.9662294 2.0614166
6.6228828 -8.972023 2.1428821
6.8617439 -8.8126335 2.1156433
0.51392704 -8.692873 2.1548243
1.2948544 -8.7295933 2.1155539
1.8148969 -8.6127863 2.0795434
2.1306109 -8.6274815 2.1381042
2.5250702 -8.7065763 2.1624193
2.9156704 -8.6557341 2.1592126
3.0067019 -8.7864027 2.086045
3.3866394 -8.7189245 2.1841686
3.7444456 -8.7689943 2.1313963
4.0410275 -8.6996078 2.1797981
4.2711987 -8.6381874 2.1739836
4.553648 -8.601202 2.1784992
4.626771 -8.7636099 2.1847725
5.8560748 -8.7143879 2.0844498
6.1508822 -8.6215134 2.1672273
6.6678076 -8.7200584 2.1544566
0.9102515 -8.4949074 2.0841885
1.3878627 -8.5900173 2.1359785
1.5624185 -8.5887432 2.1817539
1.9592423 -8.4632969 2.1232812
2.0721884 -8.4648094 2.1110053
2.7094543 -8.5859528 2.139092
3.11339 -8.5943489 2.1491311
3.5584204 -8.4785128 2.1498549
3.7300305 -8.5538406 2.1530838
3.9785326 -8.4654541 2.1487987
4.2949238 -8.4864063 2.1350863
4.975482 -8.5540209 2.18203
6.2288837 -8.5627298 2.1644292
6.8407497 -8.4989071 2.1391568
1.4319408 -8.211216 2.1228728
1.7232931 -8.2857981 2.1165299
2.1159723 -8.2907372 2.0826864
3.2805409 -8.2691021 2.1421595
4.2248292 -8.2086315 2.1335707
4.5862179 -8.2879543 2.1351008
4.6920996 -8.2462473 2.1505568
6.9765038 -8.3426256 2.074832
1.1302402 -8.1053762 2.1299052
1.308656 -8.1250639 2.1087599
1.9512619 -8.1808214 2.0776095
2.0796638 -8.1568384 2.1008935
2.5390265 -8.1409407 2.1194398
2.9559724 -8.13381 2.1264217
3.0056438 -8.0654173 2.1171677
3.3602788 -8.0851212 2.0995426
3.6556001 -8.1250267 2.1404614
3.8228483 -8.1660595 2.1126084
4.4661512 -8.136014 2.133544
4.754015 -8.0928354 2.146275
5.3633995 -8.1825218 2.1504459
6.4326334 -8.0637445 2.1689281
0.96831727 -7.8316708 2.0767519
1.3298657 -7.9169841 2.069953
1.7320733 -7.8894463 2.0518732
2.9102111 -7.9779115 2.1175675
3.033397 -7.8854675 2.1191423
3.7046325 -7.9804773 2.0464773
4.1013908 -7.8215942 2.120574
4.7144337 -7.9276428 2.0990484
4.9104729 -7.8945622 2.1851795
5.4406476 -7.8339634 2.1773295
6.3895454 -7.9460173 2.0097344
7.116365 -7.8091226 2.1908505
7.2676072 -7.8282933 2.003464
0.76365721 -7.6439552 2.0574546
1.0589982 -7.7731514 2.0730741
2.1762073 -7.7733254 2.0869563
2.3062973 -7.6152287 2.0826733
2.6154943 -7.7543297 2.1061046
2.9296625 -7.7356548 2.0742302
3.3356242 -7.7761602 2.1038218
3.7280221 -7.6607924 2.1037011
0.68789935 -7.5728288 2.0212052
1.098737 -7.5402012 2.0136583
1.6653121 -7.5002613 2.0270813
1.8464094 -7.428833 2.1493018
2.4562576 -7.5036621 2.0965137
2.7561545 -7.561749 2.0600986
2.9673369 -7.4528208 2.0919399
3.2631917 -7.4560356 2.0867553
4.0171504 -7.4898024 2.1515586
4.8910704 -7.5812635 2.0587018
7.1823173 -7.5309844 2.157239
1.4178141 -7.3323889 2.0969403
2.1571803 -7.3398676 2.0366669
2.3269162 -7.3027215 2.0753779
2.5408072 -7.3405037 2.0753894
2.7379096 -7.3044081 2.16027
2.8755822 -7.3226357 2.1121228
3.6710277 -7.3941479 2.0969062
1.333738 -7.0834122 2.1118693
1.4889916 -7.0583558 2.1284723
1.7425325 -7.0990443 2.0948281
1.8044395 -7.1649776 2.1397812
2.1332374 -7.1374745 2.0804973
2.2955794 -7.1428404 2.0526948
2.5374444 -7.1745906 2.1160283
7.3247714 -7.0525489 2.1421432
1.1171415 -6.9635134 2.1443346
1.4824669 -6.9315839 2.0829926
7.392724 -6.6920781 2.1654406
7.4535561 -6.3227463 2.0484846
3.9654355 -5.5419064 2.002141
7.967618 -3.9143376 2.1404572
8.0104456 -3.814599 2.1730459
8.02563 -3.6972535 2.1077766
7.8752432 -3.4603453 2.0397811
8.0479126 -3.5819318 2.0128376
8.0985508 -3.2879009 2.019628
4.6411476 -3.1312718 2.0510616
7.3189483 -3.011327 2.0393381
7.4725475 -3.0782781 2.0308614
7.6978302 -3.0967951 2.0088713
7.862854 -3.1576421 2.0528288
8.1461239 -3.1643481 2.1369963
8.209734 -3.0339036 2.0950193
4.275805 -2.8443508 2.0295215
6.3756275 -2.8257961 2.0424216
6.6763315 -2.8696637 2.0792396
6.9651537 -2.9297159 2.0446086
7.1434908 -2.9710333 2.0071864
7.2252321 -2.9858289 2.0345368
8.1753025 -2.9220362 2.107028
8.2240715 -2.9197907 2.1240852
6.3047686 -2.773756 2.1343994
8.2435093 -2.656404 2.0921302
3.9652991 -2.4400349 2.0932903
4.2959785 -2.4209023 2.0945115
4.6623459 -2.4565363 2.1014719
4.8693419 -2.5254645 2.0072305
5.1343536 -2.5575447 2.061584
5.2618237 -2.5730762 2.0657825
3.4283137 -2.2111022 2.0602825
3.7457695 -2.2537701 2.0769072
3.9088039 -2.2997398 2.0652311
4.1194763 -2.3499279 2.0841022
4.2872143 -2.3654141 2.115633
4.4779792 -2.38835 2.1742423
4.8617382 -2.2529616 2.1149428
5.219409 -2.398392 2.056658
8.2753782 -2.3454394 2.0561781
2.5975986 -2.0105746 2.0274582
2.665246 -2.0487342 2.0967388
3.0916357 -2.1204588 2.1299787
3.2542858 -2.1496615 2.1500001
4.8820658 -2.103406 2.1050582
8.3613939 -2.1018858 2.0724006
8.4092407 -2.0175712 2.117641
1.7528567 -1.8437717 2.1151605
1.8665974 -1.8693933 2.1515207
2.1362703 -1.9218892 2.13679
2.2045891 -1.9423003 2.1017852
2.4631922 -1.97131 2.1825888
4.972353 -1.9884057 2.116883
5.0080762 -1.9975903 2.1390486
8.4338341 -1.8379978 2.1440892
0.71989256 -1.6547606 2.0817394
0.86394024 -1.6817333 2.0045021
1.1212327 -1.7178345 2.1076818
1.3807765 -1.7850835 2.0880184
1.6196303 -1.799381 2.1963303
8.426712 -1.6930285 2.1533194
8.4983206 -1.4428335 2.1231115
-3.8511312 -1.2091496 2.1133173
-5.036562 -1.0382282 2.1088996
-4.2459545 -1.1598854 2.1196625
8.5650654 -1.0941836 2.1516552
-1.8675013 -0.99345887 2.0594823
8.5854826 -0.93874139 2.0686071
-3.8355749 -0.7107864 2.1786973
8.6384478 -0.67583174 2.0644772
-5.6988745 -0.54603529 2.1055291
-5.3959503 -0.44464585 2.148459
-4.9596896 -0.46656629 2.1393747
-4.2442718 -0.58907002 2.1519406
8.6829844 -0.54171085 2.0655518
-5.8152585 -0.26434299 2.1834877
8.712923 -0.31947768 2.0863156
-8.3614616 -0.053900272 2.0058844
-7.958569 -0.12223384 2.0281749
-7.4597144 -0.046086747 2.1916306
-7.088799 -0.11468816 2.0518274
-6.8669009 -0.1068735 2.0854499
-6.6445179 -0.10048782 2.1613245
-6.2096634 -0.17974241 2.1714885
8.7768574 -0.19127759 2.0987155
-8.6452913 0.0048869848 2.1758459
-6.3063745 0.031933069 2.1778934
5.317256 0.084645741 2.0403557
-8.6509295 0.30638978 2.1477129
-8.1768398 0.2515474 2.136198
-3.1361275 0.36971033 2.1958511
5.2849498 0.27740735 2.0655708
8.8674917 0.26131302 2.1056366
-8.669651 0.58877021 2.1894617
-8.2547264 0.54551542 2.1332669
-8.1945 0.49930376 2.0532553
-6.4197369 0.45059144 2.1912231
5.3528337 0.46544117 2.0470886
5.4202347 0.53689802 2.0735593
-8.6512356 0.74209762 2.1328022
-8.215909 0.71735388 2.019563
-8.1427479 0.72111857 2.1441338
-6.5053444 0.69748151 2.1591439
-3.0729055 0.74261862 2.1803522
5.565341 0.72914386 2.1299832
5.6043591 0.74725652 2.1435058
8.9416704 0.61503005 2.1741388
-8.6609821 0.88900542 2.0936003
-8.2254848 0.81136203 2.1109416
-6.4508982 0.91838789 2.1804318
-6.3193989 0.88925302 2.1720552
2.0628529 0.93055487 2.1203089
5.5613565 0.83425647 2.1342092
5.6113286 0.82923239 2.1254368
9.0141344 0.98265779 2.072629
-8.6649237 1.0168178 2.1985087
-6.3263273 1.1513853 2.1846502
2.0388443 1.0909622 2.0880709
5.6724491 1.0938551 2.1004055
-6.4836502 1.2904308 2.1510091
-6.2749085 1.2945611 2.1296082
-3.1483006 1.243629 2.1932077
-2.9520767 1.2647521 2.1815403
2.0419798 1.2855315 2.1014643
2.2826357 1.3620541 2.0273175
5.7059875 1.306643 2.06987
7.4434738 1.3567801 2.1923344
-6.2637758 1.5191647 2.1586869
-3.0839157 1.4255283 2.1706543
-2.885129 1.5573065 2.1771705
2.1870329 1.4770696 2.1146202
2.3273129 1.4644585 2.0493441
2.4057374 1.5273681 2.0644498
5.4912934 1.408 2.1376216
5.7266617 1.4577863 2.0766554
9.1095581 1.5360854 2.0779798
-6.4263496 1.7891674 2.0719543
-6.3144741 1.7156668 2.1363976
-6.1569347 1.736751 2.1420231
-3.0773425 1.6447529 2.1195338
-2.8863263 1.6582278 2.1325166
-1.2799206 1.6805402 2.0298707
2.1542182 1.7112079 2.115206
2.2019758 1.7644492 2.1277525
2.4121373 1.7398185 2.0228655
4.1210461 1.6900207 2.1777501
4.2570281 1.7041361 2.1689911
5.7676058 1.6085162 2.0396974
5.8242493 1.6530733 2.0614502
9.1004086 1.6907368 2.0556023
-6.1807656 1.8940012 2.1571012
-1.1359878 1.9100487 2.0253479
2.1872144 1.9103792 2.1054754
2.234355 1.8802208 2.109777
2.4329398 1.8754187 2.0151711
4.2785645 1.9423916 2.1181521
5.7627411 1.8436115 2.0520749
5.8650217 1.8736681 2.0481124
7.5687118 1.9925058 2.1207011
7.688333 1.9722929 2.1254883
7.8534846 1.9548998 2.0612278
8.0922222 1.8903413 2.1157277
8.2604237 1.8742509 2.1098909
8.502347 1.8231268 2.1384759
-8.4229279 2.1078014 2.1076002
-6.2014933 2.171134 2.0380781
-6.0906372 2.1625299 2.1262684
-2.9913404 2.001313 2.1556773
1.1204641 2.0392194 2.180485
2.2351832 2.106005 2.1144562
2.4847736 2.0471144 2.0121989
4.1695561 2.0725741 2.1648147
4.2688146 2.0146637 2.163836
5.6630812 2.1074116 2.1116042
5.9249792 2.1530647 2.026474
6.7562637 2.1749926 2.1058388
6.936347 2.1405239 2.1168852
7.076674 2.1301591 2.1440525
7.3088613 2.0601957 2.0659013
7.4448256 2.0541964 2.0832486
7.6912646 2.0241404 2.1532149
-8.3317108 2.2061043 2.0690539
-6.2463036 2.3089175 2.0568089
-6.1414366 2.2548068 2.0953283
-4.4684 2.3271987 2.0238764
-1.0816511 2.2743502 2.0483344
1.1381502 2.3061562 2.1720977
1.2048271 2.34817 2.1871016
2.2826021 2.2885501 2.1437492
2.479665 2.2347109 2.0053482
5.5070319 2.3906314 2.0569408
5.7732635 2.3888309 2.0556729
5.8340406 2.3826947 2.0174217
6.1446896 2.2902341 2.0318751
6.3126874 2.2888479 2.1095896
6.495018 2.2371178 2.1311457
6.6909871 2.2168665 2.1085939
-6.1013966 2.4703259 2.0740237
-5.9716892 2.5875387 2.0714788
-4.4237547 2.5066676 2.0622745
-0.97042751 2.5648632 2.0962634
1.1213932 2.5234551 2.177114
1.2137539 2.5671523 2.1330266
2.3312569 2.4867799 2.1189125
2.5110979 2.5160761 2.0486474
4.7019835 2.5959449 2.0642533
4.9162779 2.5723777 2.0643835
5.0734315 2.5361028 2.0986321
5.3536615 2.5041757 2.164166
5.4704108 2.4853761 2.0840878
5.6904945 2.4112349 2.0933919
-8.2976675 2.7252159 2.103014
-7.8753242 2.7313523 2.1837401
-4.3627415 2.6060071 2.0449824
-2.8333015 2.6539583 2.0474229
-2.6865735 2.700726 2.0628231
-0.98927796 2.6167195 2.0736732
1.0953004 2.6552525 2.1819005
1.2280158 2.6558897 2.1619027
2.3627841 2.75073 2.0721955
2.8837075 2.6275299 2.1090829
3.7847764 2.7792513 2.0372295
3.9669573 2.7766583 2.1740723
4.19245 2.671515 2.0373259
4.3329315 2.691494 2.0774169
4.5185733 2.618727 2.0927141
4.6580243 2.6333041 2.0660906
4.8049722 2.6346653 2.1299274
-4.4066486 2.8725197 2.1633775
-2.6520705 2.9242711 2.102252
-2.5918391 2.94029 2.0490732
2.3880138 2.8140106 2.0471683
2.4507782 2.937079 2.0738244
3.1050794 2.9502854 2.099535
3.3618889 2.9004993 2.1251879
3.4906325 2.8556237 2.017832
3.6914768 2.8298349 2.1355205
-8.2266712 3.0657792 2.1015935
-5.8625288 3.1100638 2.0139368
-2.7381699 3.0995924 2.0159395
-0.91235727 3.0067353 2.0863318
1.9703171 3.1892972 2.1654887
2.2544761 3.0552471 2.1906383
2.4398446 3.0865121 2.156981
2.9759796 3.017427 2.0640018
-8.1323891 3.252229 2.0877995
-6.0023575 3.2330906 2.0465605
-5.8271508 3.358362 2.128726
-2.6395812 3.3140764 2.1263494
-2.5220637 3.3276093 2.0475488
-0.84529322 3.3068295 2.0963531
1.0710895 3.3847828 2.0810442
1.38921 3.3217058 2.1561451
1.6974847 3.2478623 2.16203
-4.2435737 3.4321754 2.1459415
-2.5516543 3.4361341 2.1224747
-0.76509142 3.5669069 2.0038855
-0.059722185 3.5941155 2.0946116
0.18059163 3.5656321 2.1078064
0.60090286 3.4850066 2.1228576
-6.3979912 3.7369194 2.1822612
-5.8842673 3.664901 2.0976562
-5.7462606 3.7211668 2.0620487
-4.1399903 3.698786 2.1707854
-0.73891914 3.7153592 2.0845449
-0.59580183 3.6832087 2.0955989
-0.24277681 3.6481504 2.133333
-8.0438261 3.9013391 2.0963421
-5.832571 3.8702092 2.0700488
-5.7074957 3.9799595 2.0687523
-4.135932 3.9397986 2.14077
-2.0246177 3.9716725 2.1284218
-1.7136879 3.8822932 2.0715232
-1.4882686 3.8711267 2.0450575
-8.0339079 4.0307493 2.1028843
-7.9610481 4.1759205 2.1037095
-6.0194769 4.1137972 2.1679728
-5.833313 4.0423746 2.0438526
-5.7407365 4.0350366 2.1243999
-4.1110048 4.0476942 2.1412446
-3.2880013 4.1947503 2.1010952
-3.0601954 4.191431 2.1852582
-2.9274035 4.1508255 2.1480656
-2.6457791 4.0716066 2.0538945
-2.4981031 4.082696 2.1286747
-2.3734093 4.0559769 2.0140035
-2.1938803 4.0282679 2.161845
-4.0416822 4.3380938 2.0715621
-3.9704759 4.348393 2.0603294
-3.4581828 4.2302442 2.0418129
-3.3717752 4.2487507 2.1650381
-3.1053228 4.2540855 2.1630425
-7.8944182 4.52069 2.0867298
-5.064115 4.5815258 2.0668192
-3.5822675 4.484683 2.1803069
5.5663166 4.4534111 2.0320492
-6.1171794 4.78055 2.0987148
-5.906024 4.7238431 2.1385167
-5.5382681 4.6916804 2.089911
4.3393822 4.6286821 2.134542
-7.8240876 4.9724064 2.0947192
-7.0296502 4.9772983 2.0691416
-6.9393353 4.9558744 2.1936173
-6.6397877 4.8919172 2.1727734
-6.4592147 4.8547964 2.0713074
-6.2769322 4.8349257 2.0598087
5.1717091 4.9023194 2.0117764
-7.8035536 5.0810685 2.1169465
-7.713747 5.1326532 2.065135
-7.3413296 5.0610971 2.1823575
-7.6977215 5.2254791 2.090555
-7.5071278 5.2015424 2.1701012
5.3161054 6.1876674 2.0855453
4.5496082 6.3730745 2.0554872
3.667985 6.5925288 2.1211681
4.4895344 6.5280094 2.1549888
3.5047648 6.6276836 2.1604133
5.9522023 -15.602912 2.3577409
5.3851061 -15.508915 2.2661619
5.71386 -15.586234 2.2828808
6.0414152 -15.567335 2.363318
3.8952079 -15.212669 2.2658014
4.5591822 -15.33753 2.2577786
4.867672 -15.398766 2.2765753
2.9104538 -14.975371 2.2833388
1.8763946 -14.763393 2.366693
2.0479889 -14.774124 2.3596067
5.3676667 -12.868931 2.2465591
4.6001282 -12.755322 2.3325081
4.9542017 -12.766427 2.3421512
6.0532398 -12.700679 2.3664739
3.3941212 -12.470278 2.24125
2.3018517 -12.239478 2.2307796
2.4647508 -12.26354 2.2218914
3.0085945 -12.360677 2.2192845
3.3931777 -12.331652 2.2314067
6.109026 -12.296673 2.3067265
3.2670991 -12.040125 2.358104
3.7431679 -12.124735 2.3491278
4.1903467 -12.082834 2.3362463
4.4096341 -12.060895 2.3714674
5.8042736 -12.12417 2.2915854
2.2532349 -11.855387 2.2000599
2.6785116 -11.885429 2.296402
2.9323874 -11.947979 2.2972391
3.3258166 -11.866329 2.335865
4.5747342 -11.864433 2.3246086
4.9628901 -11.873373 2.3444009
5.9888039 -11.889901 2.276504
6.2210093 -11.849205 2.2589364
3.6139302 -11.639667 2.3672001
4.03894 -11.7666 2.2751422
6.2456121 -11.679854 2.2223685
-0.93352675 -11.431494 2.253212
2.9129007 -11.417961 2.3566103
3.3837647 -11.435173 2.3765776
6.1588478 -11.523861 2.3449399
2.2350786 -11.219076 2.2932086
2.4455886 -11.273939 2.2659335
2.6331182 -11.357474 2.2926798
2.8930807 -11.279434 2.383914
3.7228816 -11.313537 2.3717866
4.871696 -11.20064 2.388869
6.4186649 -11.343487 2.2141891
-0.47326756 -11.12516 2.3195806
-0.10020471 -11.088169 2.2504666
2.7204466 -11.022637 2.2888947
2.8225691 -11.139304 2.2681599
3.2707663 -11.023628 2.2694032
3.4935527 -11.066299 2.3586102
4.0682812 -11.113931 2.3782601
4.9475789 -11.054187 2.3682663
0.2699542 -10.859462 2.2247486
3.1575823 -10.973755 2.3445673
3.7776127 -10.951135 2.3456073
3.8312685 -10.856492 2.2730105
4.0713539 -10.941435 2.3570623
5.0377202 -10.998889 2.3681417
-0.56208944 -10.749665 2.3399186
0.18123722 -10.71466 2.2762604
0.25827467 -10.714231 2.2292643
0.96041709 -10.612633 2.326071
2.5463381 -10.69504 2.3116956
3.512347 -10.787976 2.3928366
3.8337252 -10.634727 2.3657877
4.2720156 -10.708128 2.3287735
4.512044 -10.622252 2.320044
5.3448009 -10.715664 2.3494635
1.4550552 -10.493822 2.2893167
1.8962486 -10.510499 2.3070252
2.1511846 -10.583102 2.3111479
2.3454309 -10.453498 2.2687891
2.9731414 -10.532489 2.2906346
5.4168916 -10.583816 2.3324933
6.5267878 -10.522372 2.2113137
1.0434785 -10.251575 2.2910476
1.3120673 -10.314533 2.2687502
1.7256336 -10.230618 2.2490029
2.1964698 -10.314111 2.2998359
3.149323 -10.389292 2.268827
3.41504 -10.218419 2.2768025
3.7364223 -10.240466 2.2787132
4.3075619 -10.293329 2.3105414
4.5763988 -10.21664 2.2996993
4.6690927 -10.346495 2.2918212
0.3673507 -10.040574 2.2980759
0.68134719 -10.182053 2.2923198
0.91473055 -10.059486 2.2317665
1.0551373 -10.196906 2.2700951
1.2512276 -10.034042 2.2204947
1.4692008 -10.121515 2.2353463
1.8254914 -10.082818 2.2761707
2.5803809 -10.137887 2.2753859
2.9708877 -10.139576 2.2724977
3.2263024 -10.075185 2.2824464
4.9524565 -10.14471 2.2477405
5.890028 -10.118155 2.3019342
0.5294686 -9.857976 2.2358027
0.62010217 -9.813858 2.2206738
0.99277973 -9.8439789 2.2026525
1.8604205 -9.8139687 2.2195201
2.300483 -9.8089094 2.2357941
3.4441178 -9.8130445 2.2446489
3.632225 -9.8445721 2.2677977
4.2540274 -9.8786545 2.2373991
4.659358 -9.9270592 2.2908678
5.1353664 -9.8980141 2.2517049
6.1045694 -9.8283825 2.2741148
0.25051117 -9.7101126 2.23136
2.0757117 -9.7327023 2.2255025
2.3282409 -9.7743092 2.2313023
2.5307629 -9.7210464 2.2427626
2.6027622 -9.6923561 2.2036395
2.9495287 -9.7595911 2.2562132
3.1345265 -9.7807865 2.2733672
3.857234 -9.6626225 2.2094214
4.7668905 -9.7914438 2.2419837
4.8799334 -9.7898855 2.2661781
5.3430591 -9.7055349 2.2566075
-0.057577133 -9.4214821 2.2051654
0.191888 -9.4646101 2.2044795
1.3090541 -9.4246721 2.2094982
1.7987233 -9.4205608 2.2157521
1.9943674 -9.4588985 2.2022061
2.4803324 -9.5812311 2.2053232
2.6625237 -9.4582787 2.2452481
2.903517 -9.5326452 2.2294617
3.3257797 -9.4254637 2.205337
3.5831609 -9.4464407 2.2470315
3.9097691 -9.4157267 2.2541804
5.125102 -9.5460396 2.2411876
5.3393712 -9.4184856 2.229589
5.9170442 -9.5695047 2.2105412
1.984736 -9.3730145 2.2415223
2.3065031 -9.3102131 2.2254815
3.2634859 -9.3509207 2.2226748
5.3974776 -9.3381271 2.2006586
5.7192159 -9.31213 2.2190528
1.9331926 -9.1792707 2.2048542
2.54158 -9.0826035 2.2343898
3.1766856 -9.0384293 2.204699
3.6360521 -9.1291132 2.2092335
3.9498618 -9.1682043 2.2278886
1.9102256 -8.8739443 2.2054532
4.0249062 -8.8617954 2.208462
4.4942379 -8.9122944 2.2033973
3.4229422 -8.7695351 2.2279577
1.2052147 -8.5274286 2.2171018
6.7290916 -8.2627726 2.3642607
6.9182625 -8.244688 2.3504751
5.8770123 -8.0584068 2.3000188
6.1024566 -8.1362934 2.2729945
6.5534744 -8.1980915 2.326344
7.0570936 -8.1668062 2.2681661
5.7688632 -7.8551416 2.2270985
2.6681049 -7.4626007 2.3233342
2.9122257 -7.45397 2.2854624
3.2153609 -7.4081073 2.2747221
7.3085661 -7.4655857 2.318337
1.8626502 -7.254735 2.3028932
1.7268667 -7.0972519 2.209543
7.9310703 -4.0624132 2.2898831
8.1254692 -3.1536436 2.2954588
8.2083473 -3.0057464 2.3038297
7.0805678 -2.9105141 2.2056482
8.1870918 -2.9070563 2.2263498
8.220314 -2.9307985 2.3034194
3.7881861 -2.250463 2.2508316
3.8847466 -2.2777002 2.3108406
4.0464153 -2.2983205 2.2873621
4.2972217 -2.356988 2.2345128
4.8324986 -2.2068539 2.2329662
8.3324356 -2.2268662 2.3131018
2.6689005 -2.0124626 2.365917
2.8940184 -2.0475121 2.3279152
3.1011205 -2.1133764 2.2537694
3.3979063 -2.1939304 2.2618799
3.4744532 -2.1785579 2.2518778
4.8589878 -2.1727924 2.3154368
5.0458593 -2.016819 2.2552514
8.3193321 -2.1771352 2.2007358
1.7677405 -1.835736 2.2857714
1.8711329 -1.8413316 2.32798
2.1048059 -1.901437 2.2914126
2.3867822 -1.9362161 2.2734833
2.4727342 -1.9790883 2.293561
4.9755859 -1.9821873 2.3248692
5.0076866 -1.9923856 2.2396722
8.3947048 -1.9357891 2.2339182
-6.8542252 -1.6644158 2.30059
0.87462306 -1.6486646 2.2015634
1.3748608 -1.7331011 2.350771
1.516243 -1.767004 2.3776293
1.6495103 -1.7941294 2.2739871
8.426178 -1.6769787 2.3314507
-6.8530254 -1.5085633 2.2926774
6.9714351 -1.4557834 2.3822699
8.4550943 -1.5745068 2.3300471
-9.1947327 -1.3771158 2.361419
-8.6677113 -1.3704928 2.3656471
6.9439106 -1.3210984 2.3920565
7.0452943 -1.2388123 2.3598843
8.5137815 -1.2815664 2.3894997
-4.6683321 -1.0898337 2.2682025
6.9438081 -1.1134473 2.3830333
7.0735655 -1.0393355 2.382302
-5.4787445 -0.97669435 2.220645
6.9613943 -0.82645565 2.360126
7.1279373 -0.88576567 2.3798094
8.6019278 -0.83000666 2.3539968
3.6607227 -0.69401956 2.3853636
3.8504729 -0.68233144 2.3854759
6.9450359 -0.74973422 2.3845468
7.1675801 -0.7016778 2.381887
-6.1463385 -0.45228925 2.2114496
-4.5862856 -0.52806121 2.2989402
3.7386684 -0.48756668 2.3669269
3.874907 -0.50042766 2.3782163
6.9710999 -0.45950508 2.377058
7.1188908 -0.53671896 2.3746839
7.2225876 -0.47377333 2.3826442
8.6863937 -0.47701293 2.3445163
-5.3439713 -0.30421564 2.216903
-4.9828463 -0.31741387 2.2954469
-3.700603 -0.26419264 2.3474319
-3.354291 -0.23619488 2.2420883
3.7433381 -0.27236918 2.3530259
3.9256113 -0.28136528 2.3757939
7.0727367 -0.23497261 2.3762414
-4.9258928 -0.027901173 2.3696246
-3.2100921 -0.030176222 2.2036402
3.7802243 -0.068732463 2.3394022
3.9748306 -0.12116192 2.3424392
7.2614346 -0.16012119 2.3773408
8.7420444 -0.078635752 2.200923
8.8223286 -0.030510534 2.2293661
-7.8534284 0.086791135 2.2827134
-7.4225879 0.10160142 2.2987936
-7.0673504 0.041071769 2.2490087
-6.6497011 0.15438673 2.3112378
-3.3556261 0.16573916 2.2540963
3.7740886 0.011153221 2.3537393
3.853735 0.080836087 2.314465
4.0260258 0.11760148 2.3287699
5.3829589 0.18019074 2.2263827
7.1113129 0.13770494 2.3189657
7.3013153 0.081755303 2.3577678
8.7917233 0.072723478 2.2752085
-8.689991 0.32062137 2.2197804
-3.326422 0.20838875 2.2410734
-3.1226983 0.3467505 2.2442989
3.8722057 0.23264693 2.3079638
4.0818701 0.35682005 2.3085868
5.3627148 0.29115921 2.2980638
-8.2421274 0.45239684 2.2845025
-8.1881342 0.54148525 2.3176162
-7.0220418 0.52427351 2.3719838
-6.5064745 0.5706346 2.2339735
-3.2007916 0.58273315 2.2553437
3.9407129 0.48743215 2.349628
4.046979 0.44099212 2.3269844
5.3866749 0.43663272 2.3891025
7.1971655 0.56742442 2.3210897
-8.6743011 0.76283348 2.3623228
-8.2696314 0.63870823 2.2468433
-7.2756643 0.76827538 2.3199449
-6.4204779 0.61786282 2.2423503
-6.3706722 0.69206059 2.2326493
-3.2340539 0.7525208 2.2058582
-3.1388867 0.63904697 2.2717931
3.9641457 0.63865238 2.347436
4.1037531 0.62895232 2.2777066
5.3251462 0.7339716 2.2741714
7.2824955 0.74923182 2.3458018
7.43365 0.78982103 2.2909718
-8.6591387 0.91217059 2.2518158
-6.9159651 0.8477546 2.2982941
-6.4710045 0.92671651 2.2125413
-3.1099944 0.85526657 2.3294418
3.9463336 0.83797348 2.2719331
4.049552 0.82131153 2.2626238
5.3623075 0.90895861 2.2030904
5.4771118 0.95822537 2.2305841
6.2975693 0.8976323 2.3908508
7.3124762 0.93125051 2.2781901
7.4431543 0.91380036 2.2750108
-6.3241878 1.053863 2.2432706
-3.0497952 1.1070235 2.2719626
2.0953732 1.0627511 2.2355657
7.3214369 1.0486387 2.3049054
7.4627228 1.0354321 2.2817659
9.0190525 1.0310152 2.2364535
-8.5732021 1.3870649 2.2442713
-6.983284 1.3282654 2.3679032
-6.4095469 1.2335865 2.2090824
2.1384723 1.2962557 2.3578978
5.5295658 1.27468 2.2291939
7.3801465 1.355391 2.273104
7.4518828 1.3094454 2.3799801
-8.2864113 1.5266211 2.3847136
-8.113905 1.5966105 2.3699203
-6.9662399 1.4929049 2.3723218
-2.9905486 1.4859836 2.2298408
2.1792555 1.5579859 2.3666258
4.145185 1.4948059 2.2478094
7.3379726 1.4174577 2.3459966
9.1417971 1.5943273 2.2847762
-8.0428095 1.6249204 2.3530636
-6.85495 1.7731742 2.385407
-6.3913631 1.6240326 2.2080278
-2.94787 1.7669448 2.2507083
2.1321313 1.7150595 2.2224751
2.2317386 1.7612702 2.3842473
4.1663442 1.6828873 2.240458
4.2441912 1.6385292 2.2616343
5.5682859 1.6300741 2.2229896
8.7182827 1.7200279 2.2420158
8.8947611 1.7615116 2.2644975
9.1263533 1.7185185 2.3075352
-8.4712076 1.8383371 2.3439007
-8.377039 1.9176362 2.3619647
-8.1469374 1.8246485 2.3404706
-7.5422831 1.9778564 2.3253598
-6.2049851 1.836008 2.2350881
-3.3354163 1.9393871 2.3002949
-2.9045391 1.8519371 2.227149
2.1916187 1.8434145 2.3453755
2.2566507 1.9518976 2.3636026
4.2321935 1.8767679 2.2407677
5.7062316 1.8750715 2.3508959
7.6629734 1.9916309 2.2717986
7.9424314 1.9487581 2.3625717
8.1029596 1.8994119 2.2951992
8.2432861 1.8743663 2.3349872
8.4829254 1.8149101 2.2535825
8.8451424 1.8066621 2.2036247
9.0866232 1.8117485 2.3057911
-7.9138913 2.1751723 2.3347311
-7.4743662 2.1474071 2.3033705
-6.1845036 2.1077955 2.2096658
2.2837367 2.0588036 2.3463645
3.9376135 2.1479373 2.3879066
4.2567153 2.0270367 2.2232041
5.7174187 2.101469 2.3585701
6.7759323 2.1942782 2.2501981
6.9303012 2.1443586 2.24313
7.0808849 2.1153443 2.3355083
7.2730513 2.076746 2.3142986
7.5144968 2.0375943 2.2590246
7.6901913 2.0136938 2.3808765
-8.2099924 2.2255363 2.2671177
-7.9397058 2.2687423 2.3616014
-6.7746153 2.2600203 2.3954597
-4.0198617 2.2199798 2.3307338
-3.9207423 2.297122 2.3376386
2.3433604 2.3054852 2.3127036
