# .PCD v0.7 - Point Cloud Data file format
VERSION 0.7
FIELDS x y z intensity
SIZE 4 4 4 4
TYPE F F F F
COUNT 1 1 1 1
WIDTH 1235
HEIGHT 1
VIEWPOINT 0 0 0 1 0 0 0
POINTS 1235
DATA ascii
8.2768517 -0.24891481 1.0199425 12.920138
8.7446928 -0.22238606 1.2425265 11.905954
-8.5451326 0.32461813 1.2780391 12.012595
-8.2862167 0.26189634 1.2876345 12.715278
-7.8242469 0.15656082 1.2325507 13.008492
-7.2891421 0.11748311 1.2406358 13.093227
-6.6856189 0.060239475 1.2360921 14.486111
-6.2825012 0.039224334 1.1732252 14.5
-5.8446331 0.0091829598 1.0256174 15
5.2948084 0.28787175 1.2055367 13.927037
5.6035008 0.233375 1.1767997 12.903449
8.3421564 0.2573064 1.2310355 13.62548
8.7177515 0.17673752 1.2272774 13.387707
-8.6093311 0.83647454 1.2702109 12.521628
-8.2287149 0.58432925 1.2490219 12.08515
1.9026744 0.80907172 1.1614038 12.244009
2.2201195 0.75298089 1.1449947 14.313393
5.2840185 0.52777696 1.1055634 14.245918
8.3710928 0.69493067 1.1148212 11.764099
8.7482538 0.77726555 1.2223483 9.8876801
9.0203848 0.85178018 1.2762558 9.5
-8.5495167 1.1536555 1.2612587 12.520674
-8.4796782 1.3505872 1.2988226 12.625
-1.5377438 1.358542 1.0093741 12
-1.3254623 1.3606386 1.1411637 12.945514
1.9569321 1.1157184 1.1273611 13.721843
2.1628287 1.1516938 1.1514676 14.43038
8.498167 1.324327 1.2398798 13.415039
8.6585026 1.2351011 1.1944131 11.901833
9.0641861 1.2162236 1.3857607 10.255737
-8.4060163 1.7672945 1.2519451 12.445658
-4.6892529 1.947966 1.022404 14.759115
-1.5211961 1.5507183 1.0281434 11.90625
-1.1776977 1.7141234 1.2497017 12.951837
-0.77062601 1.6716468 1.0158018 15
5.6166935 1.9620955 1.3026 13.466399
6.3221021 1.9676815 1.4675266 12
6.7431374 1.8952246 1.3845308 14.553348
7.26546 1.8796427 1.4107351 14.237918
7.7163744 1.7956498 1.3744062 13.34771
8.2310324 1.740912 1.3872691 13.204583
8.7375975 1.7163923 1.2611026 12.178506
9.1465759 1.8020071 1.3109902 9.0924616
-8.3272324 2.2178226 1.3104318 12.734718
-4.6623111 2.1760616 1.1653237 13.348334
-4.380724 2.3495159 1.2441049 13.043545
2.2014763 2.4874203 1.2168078 13.698242
4.3962913 2.3983748 1.380211 14.555744
4.7538767 2.3852901 1.3979959 14.331889
5.247057 2.3861694 1.356542 13.33436
5.7081232 2.2423227 1.364501 13.454963
6.247951 2.2470241 1.3484229 13.771325
6.7319903 2.2406006 1.3448814 13.951332
7.2436237 2.2974839 1.3224521 12.793097
7.6979208 2.1323292 1.3537478 12.723524
8.2601376 2.2166371 1.345614 12.309233
8.6515121 2.2201946 1.2987055 12.203619
9.184391 2.1224194 1.3698175 13.05392
-8.2356758 2.7451887 1.2291349 11.873135
0.31964386 2.9903917 1.0725467 15
0.61214858 2.9823701 1.1327413 14.333334
1.3972943 2.7019944 1.0740941 14.182072
1.7639123 2.7904489 1.1752796 13.461125
2.2547576 2.7787173 1.2215806 12.549198
2.7361786 2.817342 1.3428541 13.571621
3.2404289 2.7292376 1.3181685 14.463275
3.7471225 2.6857393 1.3419157 14.289256
4.2648144 2.6668553 1.3128163 14.580168
4.7649727 2.7414591 1.2927383 13.600226
5.2781091 2.7463226 1.2904856 13.496921
5.7722588 2.7487094 1.2945609 13.301814
6.2954187 2.7791002 1.2903775 13.746137
6.7515321 2.7986321 1.275987 11.787875
7.2898445 2.7574859 1.2980922 13.460135
7.7748899 2.6850023 1.2787907 11.630294
8.2013769 2.8177052 1.2592844 11.814963
8.7648668 2.6941817 1.3002875 11.794652
9.2705488 2.7791209 1.1996229 9.9900379
-8.1054125 3.2911375 1.1751198 13.108734
-1.2837458 3.3658607 1.0593857 13.529514
-0.63762307 3.3320224 1.1581239 12.861616
-0.26625189 3.3300788 1.2021387 13.154228
0.24489854 3.3266644 1.2733322 13.26335
0.73685443 3.2542448 1.2771941 13.016311
1.2382433 3.225251 1.3386595 12.928224
1.7511615 3.2145796 1.1644162 13.289349
2.2523279 3.2733331 1.1794369 13.367076
2.6795018 3.2300768 1.2340716 11.536157
3.2694511 3.2862396 1.2372847 13.764684
3.7447174 3.353332 1.2259272 11.494381
4.2734571 3.2691476 1.2409909 11.767738
4.7570877 3.2811313 1.2238047 12.421241
5.3016458 3.274333 1.2467887 11.605897
5.7885838 3.1811008 1.259356 13.571462
6.2676711 3.3533726 1.2410972 11.064999
6.7878876 3.1720798 1.2771471 11.684848
7.2397404 3.2100339 1.2305932 10.116145
7.7502608 3.1766012 1.2755009 11.430096
8.2434711 3.1788485 1.2463052 11.248976
8.6506824 3.2837572 1.2146215 9.6689701
9.3384228 3.1776001 1.2241211 9.9270296
9.5287819 3.4170959 1.2662609 11.084961
-8.0492401 3.7475667 1.1733601 11.711171
-7.9793196 3.908524 1.1999538 12.096362
-4.3769684 3.9660499 1.1442443 13.809896
-3.1856236 3.8653274 1.1827312 12.814576
-2.7083962 3.9176834 1.2270598 13.225596
-2.1882672 3.8372877 1.2767935 13.694864
-1.7551647 3.7491045 1.2024435 12.897178
-1.2268133 3.7332015 1.2797235 13.136392
-0.71922153 3.707149 1.2958002 13.128737
-0.22539796 3.7694991 1.261536 12.866361
0.22966965 3.6085246 1.2424248 13.217649
0.74543995 3.7421691 1.1982845 13.206093
1.3156438 3.8572855 1.1817186 12.79387
1.7841355 3.7930493 1.1898439 12.240285
2.2149866 3.7145462 1.1853528 12.571452
2.749012 3.6710439 1.1987273 13.57445
3.30742 3.7193739 1.2003145 12.440413
3.7709119 3.8887098 1.2198436 13.637858
4.2610755 3.7413292 1.200037 13.776542
4.712009 3.7560906 1.1984067 12.816815
5.2813244 3.7606936 1.2061369 12.085336
5.8515849 3.723623 1.2018547 11.690876
6.1336813 3.7652135 1.2109505 11.349131
6.7607021 3.8162761 1.1956294 11.164846
7.2834587 3.7511618 1.2142308 11.817732
7.7873826 3.8019207 1.2082614 11.260278
8.2179298 3.7700784 1.2020746 10.745541
8.707859 3.7241321 1.2066139 10.816343
9.2101688 3.6774185 1.1928675 8.9991589
9.5893545 3.784646 1.1853367 9.2660494
-8.0205078 4.0989304 1.0893726 8.6972656
-7.9425917 4.1675043 1.1590223 10.297881
-5.6567278 4.3877106 1.172616 11.850261
-5.2628107 4.4112587 1.2040602 12.610207
-4.7910867 4.3852706 1.2927572 13.067044
-4.2492819 4.2457886 1.2594763 13.183921
-3.756191 4.3005896 1.2583708 13.372136
-3.2687345 4.2219124 1.2386239 13.255126
-2.7930763 4.2486811 1.1998429 13.721849
-2.2700517 4.2042975 1.2417434 14.2772
-1.7347306 4.236196 1.1602899 12.788409
-1.2307123 4.3043284 1.1748923 14.091173
-0.740794 4.3282967 1.1305016 12.339499
-0.28812522 4.2362537 1.1724412 13.283475
0.27472007 4.186409 1.1652944 13.377672
0.82980043 4.216548 1.1774848 13.675839
1.2886884 4.2508373 1.1823622 13.947305
1.7885176 4.2362137 1.1847713 13.117406
2.217865 4.224916 1.1751626 13.475022
2.7478561 4.2328625 1.1826131 13.212989
3.3257387 4.2198839 1.1731451 13.769139
3.750206 4.2625413 1.1988287 13.574661
4.1675487 4.1676626 1.1975603 13.58021
4.7060828 4.1413155 1.1791023 12.799085
5.2631679 4.2312455 1.1768664 12.513423
5.7890358 4.2134743 1.1788754 12.531534
6.2178464 4.210536 1.1921976 11.925941
6.7325745 4.1838479 1.1829928 11.65781
7.3380394 4.1725578 1.1823847 11.448162
7.8876553 4.2669692 1.1869111 11.361953
8.2513294 4.2433891 1.1597822 10.15952
8.7317619 4.1675835 1.1913671 11.424076
9.3290405 4.2583885 1.1734192 9.6817675
9.6579618 4.2794428 1.1731849 10.790561
-7.8084421 4.8533092 1.267886 12.584976
-7.1963129 4.8562837 1.2169827 12.57495
-6.7588096 4.7209044 1.1646042 12.478817
-6.2486715 4.6933556 1.2689351 12.942801
-5.7946286 4.6842632 1.2286433 12.81718
-5.3928785 4.7647581 1.2077348 12.499369
-4.6395435 4.6573482 1.1856349 12.098231
-4.2170525 4.6571589 1.1431493 13.079663
-3.8200932 4.755971 1.0681444 10.472483
-3.2813692 4.7870936 1.111383 12.973776
-2.7311947 4.7483077 1.1115029 12.860808
-2.2687864 4.7154274 1.0894734 12.078667
-1.7299562 4.7118692 1.1137971 13.103588
-1.258499 4.8139906 1.1352564 14.583442
-0.79014337 4.7415142 1.166115 14.008464
-0.3237851 4.8029671 1.1580356 13.321129
0.22115722 4.6783338 1.1176087 11.034908
0.72638762 4.7120333 1.1271114 13.188702
1.1719264 4.7613606 1.114892 12.406107
1.6824272 4.7438631 1.1185535 13.313006
2.2847309 4.7105303 1.1060016 12.18458
2.7155995 4.8280983 1.1179596 12.644284
3.2269456 4.764636 1.1352394 12.425433
3.7023017 4.8038311 1.1323836 12.522446
4.316237 4.7036166 1.1243252 11.92654
4.8519588 4.666893 1.1275952 11.251577
5.2206745 4.709775 1.1628981 11.040248
5.7032065 4.7117138 1.1457658 11.454102
6.1982117 4.7603664 1.1398536 11.923043
6.841917 4.9521685 1.1279534 10.661475
7.3213615 4.6834641 1.1476743 11.273529
7.7073383 4.7662592 1.1324618 10.419374
8.2182722 4.6729255 1.1327423 10.865666
8.741786 4.7405438 1.1481801 10.667032
9.1375837 4.7505865 1.138768 10.757956
9.6827688 4.7576523 1.1318122 10.6875
-7.6644812 5.2005982 1.2577741 11.9944
-7.2841539 5.190187 1.193851 12.954764
-6.7144504 5.2220898 1.0982802 11.92556
-6.2009621 5.3201361 1.1018666 12.529448
-5.7608275 5.2944689 1.0774786 12.387442
-5.2778158 5.2271357 1.0950253 12.721263
-4.7346296 5.2624283 1.0894943 12.330091
-4.1073117 5.2234788 1.1111182 14.15777
-3.8706932 5.2233906 1.0947405 13.635349
-3.2367618 5.2238364 1.0783179 12.167598
-2.7339885 5.1832714 1.0981963 13.488853
-2.2793503 5.2905312 1.111004 13.120759
-1.7495551 5.1865916 1.1211524 13.600428
-1.3397385 5.2341142 1.1192775 13.088543
-0.74928528 5.1578379 1.1205039 11.934897
-0.2621586 5.2815757 1.0713652 11.850715
0.15042078 5.4459505 1.056133 12.065864
0.78533518 5.4011312 1.0329597 10.736821
1.2080628 5.2462001 1.0576047 11.926735
1.8354813 5.2564454 1.0654926 11.909563
2.291481 5.2314129 1.0699394 12.127813
2.6840084 5.1638308 1.0801988 11.211935
3.2538548 5.2538657 1.0914102 12.561354
3.7836189 5.2710633 1.0981706 11.875012
4.3426743 5.260529 1.0841348 11.655798
4.7890286 5.1646638 1.1081996 11.8125
5.2265816 5.2667909 1.0982164 10.889087
5.7537804 5.270628 1.094154 10.599577
6.2162628 5.2470627 1.0964885 11.715302
6.7604461 5.3780165 1.0858185 10.932022
7.214623 5.2300315 1.0980827 11.565185
7.6871929 5.277792 1.0939791 11.15003
8.1955299 5.3043685 1.1012548 10.740549
8.7361269 5.2999182 1.0919235 10.589775
9.2418137 5.2456355 1.1079212 11.303062
9.7807941 5.1458073 1.0632 9.8557453
-7.5967255 5.745224 1.0669657 12.704688
-7.1737442 5.7331347 1.0920763 12.6625
-6.7318134 5.6928835 1.0794054 12.682478
-6.1755118 5.7948217 1.062108 13
-5.7896423 5.753387 1.0685867 12.876172
-5.2770214 5.7442493 1.0788721 13.343341
-4.7730842 5.7391663 1.1009947 13.259521
-4.2829418 5.7659411 1.0715667 11.968361
-3.8090291 5.716763 1.0884349 13.309558
-3.1809225 5.7107277 1.09746 12.508496
-2.750494 5.6757631 1.0897607 13.271152
-2.2876108 5.866797 1.0699313 12.356201
-1.7552218 5.7594385 1.0825604 12.173819
-1.3958344 5.7473502 1.0631441 12.022788
-0.14288437 5.6395798 1.0691106 13.5
0.13142033 5.6697149 1.0010071 9.2408848
0.61744726 5.7958288 1.0343374 12.71875
1.2697686 5.6605277 1.0475302 12.776843
1.777441 5.741848 1.0490835 12.475636
2.2582664 5.8148384 1.0339406 12.104275
2.6710339 5.8066616 1.0409226 12.471821
3.1927047 5.7746716 1.062232 11.991545
3.751214 5.7967405 1.0571406 11.125117
4.164444 5.8183966 1.0575022 11.629629
4.6729922 5.7998004 1.0491667 10.73495
5.3165278 5.7071815 1.055492 10.120933
5.8366942 5.6788454 1.0497665 10.768506
6.2004547 5.6582623 1.0588319 11.559225
6.7118239 5.8224678 1.0527325 10.957141
7.2883267 5.7644396 1.0536034 10.122748
7.7735915 5.7205477 1.0806707 10.07994
8.2832527 5.772316 1.0757363 10.688934
8.7192459 5.7522984 1.0572395 9.2305765
9.2549992 5.7462978 1.0481137 10.225196
9.7939882 5.6373439 1.0620786 11.9375
10.028246 5.8684716 1.0217453 9.3375702
-7.50249 6.1246037 1.0650492 12.45285
-7.2276931 6.2898421 1.0499387 13.403646
-6.7814789 6.2850924 1.0351572 12.957243
-6.2598033 6.2478209 1.0363144 13.083334
-5.6911311 6.1537809 1.0167893 12.496389
-5.184114 6.2945542 1.0318037 12.62365
-4.6818705 6.2843862 1.0424021 12.698007
-4.2383623 6.2313137 1.0358884 12.763347
-3.8295431 6.2033911 1.0327878 12.355017
-3.2836208 6.1784377 1.0465467 12.535762
-2.7153642 6.2162929 1.0450807 12.330078
-2.0794616 6.2109175 1.0457914 13.699164
-1.979622 6.0755196 1.073334 11
-1.2876759 6.1998749 1.0615692 11.796875
-0.22576523 6.1993079 1.009434 13
1.3774017 6.0989676 1.007279 12.75
1.7992167 6.2360625 1.022161 12.125
2.2058244 6.3504038 1.0163207 11.990469
2.7530191 6.2673402 1.0306472 11.852026
3.226141 6.2751689 1.025184 11.000162
3.7218106 6.1346703 1.0294889 11.064236
4.280117 6.272543 1.0178838 10.692708
4.814311 6.30688 1.0095847 9.25
5.2108979 6.2063565 1.022507 10.157993
5.9515929 6.1700397 1.0068457 8
6.1896563 6.2775364 1.0192497 10.8125
6.5734468 6.1164069 1.0345591 9.3326464
7.2714033 6.2069397 1.0273345 10.762209
7.7991066 6.2020907 1.0230272 10.275511
8.2759161 6.2973928 1.0239216 9.9762897
8.7739706 6.2216072 1.0335438 10.615938
9.2418575 6.4003692 1.0253283 9.9189091
9.8817863 6.3241811 1.034477 12.5
10.038519 6.3177586 1.0178502 12.125
-7.338295 6.752738 1.0371077 11.760417
-6.762516 6.9713869 1.0479577 14
-6.2843451 6.665216 1.016155 12.5625
-5.749927 6.6589098 1.0145825 12.505496
-5.3570886 6.6269693 1.0139858 13.062052
-4.3348494 6.9249091 1.006839 11.262805
-3.7864532 6.6679969 1.0084511 12.403644
-3.2712073 6.5944557 1.0064635 10.818915
-2.7441292 6.6554689 1.0169079 13.334872
-1.1792583 6.7295165 1.0124866 10.875
0.95765924 6.5619192 1.0038522 12.5
3.2226009 6.6647501 1.0098701 11.000434
3.7997789 6.571744 1.0095208 11.217188
4.2995586 6.5228629 1.0216415 11
6.6040945 6.6964498 1.0114025 10
7.3389549 6.512784 1.0063255 10.147993
7.8383498 6.6077132 1.0079608 10.750763
8.120986 6.7680349 1.0041519 10
8.6854858 6.5951934 1.0168662 9.333334
-7.3247967 7.0131626 1.01823 13
-6.9427924 7.0017309 1.0111791 14
-6.19175 7.1379943 1.0337965 13
-5.1045704 7.0817151 1.0007539 12
-3.6714401 7.3476682 1.0091158 15
-3.4554436 7.0065289 1.005371 12.734591
-1.1041355 7.110785 1.0065376 12.5
-5.5557947 7.67383 1.0100034 10
-1.6181407 11.312329 1.0751017 11
-0.98688698 11.23193 1.0478399 12
5.3466377 -15.535543 1.7052441 8
5.7678061 -15.623586 1.7188499 8
6.3443193 -15.726231 1.8737018 8.25
5.947052 -13.051805 1.6054817 8.5
3.4191287 -12.533585 1.9628848 13.882161
3.7146988 -12.580324 1.9208355 13.125
4.2897491 -12.677437 1.674603 13.5
4.7667751 -12.81671 1.8005779 11.354167
5.997901 -12.699802 1.6410583 9
6.0382571 -12.833244 1.747252 8.666667
2.3483427 -12.208767 1.9709193 11.333333
2.7490268 -12.292461 1.8971949 12.6875
3.1831169 -12.211443 1.8560882 13.5
6.1671076 -12.185595 1.6509275 8.75
-1.0507879 -11.558095 1.8683411 10
-0.75527376 -11.633093 1.8890684 10.25
-0.19067144 -11.812161 1.9894212 11
2.3112655 -11.859974 1.9301169 13
2.7981484 -11.943012 1.7306384 11.883382
3.2554762 -11.969096 1.7373278 13
4.6854515 -11.99778 1.911353 14
5.982708 -11.681861 1.7621769 9
6.2898655 -11.747338 1.8883852 9.25
0.043349981 -11.492655 1.9278592 11
0.80778462 -11.052145 1.7752972 11.317058
1.3149037 -11.131715 1.6467724 12.31302
1.791837 -11.230235 1.7721534 11.932329
2.1839209 -11.24868 1.7588705 12.289146
2.6286283 -11.32769 1.7559963 12.800781
4.7875862 -11.449875 1.9166591 10.5
6.3623686 -11.456173 1.868959 9.25
0.2358771 -10.824753 1.8520435 11.1875
0.5799433 -10.942369 1.8642378 11.635416
1.5738389 -10.684319 1.968166 13
4.7629895 -10.863204 1.9096047 10
5.8997564 -10.748873 1.6794853 9
6.2289696 -10.821463 1.7084026 9
6.5226951 -10.753044 1.7593946 9
1.6193079 -10.047272 1.8198888 13.9375
5.048512 -10.393525 1.8643912 10
6.3980541 -10.067869 1.7266849 9
6.615859 -10.298337 1.7262056 9
1.6602273 -9.8395157 1.7869289 12.75
4.9516602 -9.7614689 1.8433287 10
5.9212084 -9.7625723 1.6219835 9
6.069478 -9.8069868 1.616624 9
6.761735 -9.6825409 1.7723868 9.5
1.8235002 -9.2911549 1.7779713 12.583334
2.1349826 -9.1747799 1.8302953 13.5
5.1959391 -9.2495909 1.7561493 10.227778
6.2628226 -9.1541767 1.5697434 8.9571762
6.810935 -9.3973656 1.9284798 10
1.8460808 -8.7222767 1.6789167 13.25
2.0440199 -8.6248055 1.6657932 12.166666
5.2860394 -8.7413778 1.7452791 10.625
6.3168488 -8.7672272 1.561883 9
6.557909 -8.9433346 1.708146 10
1.9128778 -8.3203945 1.6597903 12.6875
2.1465442 -8.2312021 1.613263 13.311035
6.4120841 -8.3514385 1.7485207 9.854167
6.6332321 -8.1062355 1.6850681 9.666667
1.2171774 -7.5670962 1.9933589 14
6.6696396 -7.697927 1.745307 10.177084
0.90131545 -7.3315578 1.9889647 13
1.7109256 -7.1553402 1.9864421 15
6.6378427 -7.2857575 1.6907208 10.25
7.1587501 -7.0353575 1.7579886 10
1.4353766 -6.9623833 1.9548954 15
6.7996631 -6.9165258 1.6803108 11.208867
7.3528228 -6.7624927 1.8147981 10.412832
7.4348369 -6.2550716 1.6073543 9.8480797
7.6002316 -6.0129938 1.6564279 10
3.9425235 -5.6128836 1.715256 14.420461
4.1975446 -5.689847 1.6352297 13.78125
7.120472 -5.7628398 1.6200264 10
7.5584326 -5.8062911 1.658885 9.9388027
3.8703797 -5.4721866 1.5361631 14.208333
4.2344003 -5.3740096 1.6670786 14.134666
4.512043 -5.4298267 1.5690511 13
7.9583201 -3.6728334 1.9074388 13.740041
8.0452642 -3.6356058 1.839913 14.782701
6.389616 -3.1007214 1.7400472 13.897675
6.8493028 -3.0116613 1.8893452 14.5
7.3059821 -3.1799245 1.9127282 14.656059
7.8056879 -3.2800622 1.9149704 14.224952
8.082592 -3.2591388 1.7519183 13.850286
4.1604505 -2.5594745 1.8314104 13.822784
4.7416205 -2.6442642 1.7707751 13.800309
5.2310238 -2.7085817 1.842577 14.826149
5.647851 -2.8098338 1.8789586 12.974398
6.3435092 -2.8089094 1.8312324 14.083334
6.7118206 -2.9240272 1.9189396 15
7.1843843 -2.9836984 1.9820244 13.5
8.2149458 -2.7704494 1.7693652 14.198879
1.7832246 -2.0679486 1.7344267 14.913679
2.3225977 -2.1565552 1.7686878 14.648878
2.7815945 -2.2252402 1.6985171 13.080501
3.2542832 -2.2599788 1.8068542 14.047073
3.7071369 -2.3603663 1.8789498 14.660082
4.2859435 -2.4109035 1.867631 11.670197
4.8714228 -2.1947286 1.7595737 14.319628
5.0153999 -2.0482252 1.7823199 14.410156
8.3372402 -2.1905315 1.7025075 13.643719
-2.785497 -1.5586407 1.7964051 15
-0.18560249 -1.58066 1.6167639 14.663838
0.18571931 -1.6179115 1.7893509 14.649721
0.75367123 -1.7540132 1.7856194 13.921722
1.2168628 -1.8150138 1.7931395 12.846701
1.6204599 -1.8929565 1.7514719 13.841187
2.2161143 -1.9834882 1.8720753 12.704565
4.9700747 -1.9908435 1.7124904 11.853516
5.0218277 -1.9494367 1.6750492 13.666667
8.4122934 -1.7857679 1.7230365 13.31883
-6.1861525 -1.0362744 1.6366589 12
-5.8132806 -1.0108944 1.8445419 12.75
-5.2343884 -1.0500066 1.8099376 13.25
-4.6742859 -1.2231076 1.6869674 13
-4.3268929 -1.2347646 1.7693095 13.5
-2.5217118 -1.1571136 1.6457182 14.625
-2.2163186 -1.1085992 1.741353 14.990106
-1.7642126 -1.1539509 1.6208042 14.622025
-1.2692903 -1.2631054 1.6532631 14.757523
-0.91838968 -1.3713739 1.5868723 14.583334
8.4829855 -1.4067183 1.6842675 13.674479
8.5383015 -1.1930521 1.7809134 13.922079
-7.5917053 -0.51834399 1.7388126 15
-7.2773943 -0.66262966 1.6653633 15
-6.7664194 -0.96615207 1.7382381 12
-5.7197099 -0.6014291 1.5261698 14
-5.2479134 -0.60190606 1.6154425 14.684887
-4.7011862 -0.57358956 1.7770631 12.809029
-4.3216162 -0.79687953 1.7533646 14.373843
-3.9257572 -0.64734024 1.9044135 14.166667
-1.695158 -0.85332727 1.7957083 14.8125
8.6072607 -0.79408276 1.733511 13.987691
-8.2865925 -0.25463793 1.8313267 14.142363
-7.6888671 -0.064681619 1.6097565 12.777424
-7.2169309 -0.12200525 1.7596128 14.426502
-6.732955 -0.23665307 1.6737684 14.318589
-6.2754359 -0.28428045 1.7234756 14.248437
-5.8093586 -0.40641278 1.7086561 14.564892
-5.4256644 -0.40376323 1.7801096 13.702997
-4.8010149 -0.36614698 1.8824015 14.052083
5.3249063 -0.011442959 1.7336489 12.899662
8.730794 -0.23235014 1.7666194 14.04527
-8.5890369 0.32483387 1.7497464 14.209138
-8.1798029 0.20703733 1.7695284 14.194072
-7.7515526 0.085271619 1.7016492 14.088112
-7.2707601 0.040857717 1.8313694 13.914171
-6.770113 0.028121427 1.7657232 13.25
-6.3816938 0.016292095 1.8008479 14
5.3242264 0.26955068 1.7140926 13.679417
8.8227158 0.19165502 1.7351222 12.671814
-8.6539803 0.76429218 1.716665 13.56467
-8.2321835 0.66493338 1.741698 13.830563
1.9671752 0.93160033 1.78431 11.859375
2.0534751 0.83232802 1.7673472 12.907054
8.9246702 0.75945246 1.6873856 14.330726
-8.5897665 1.1986525 1.7997149 12.867434
-8.4786959 1.3979968 1.692553 14
-1.2806036 1.4747899 1.5150741 13.994286
1.9896418 1.0551493 1.7747715 12.9375
2.1291242 1.1742654 1.8418479 13.97715
8.9597282 1.0255414 1.7249165 14.5
9.0545044 1.2809689 1.6888294 13.15676
-8.4086475 1.7934923 1.7051018 13.647009
-1.1965077 1.6978918 1.7645245 14.821152
2.4614904 1.9947667 1.9911799 13
5.796546 1.9223197 1.9927717 10.708334
7.1390915 1.9954188 1.7692851 10.75
7.7402844 1.9148721 1.6919508 13.453873
8.2739029 1.8422868 1.7078338 13.197329
8.7154951 1.7420535 1.6760756 13.322118
9.0587826 1.6309609 1.7118013 14.196259
-8.3389006 2.2798889 1.7018975 12.906242
-4.524991 2.1948805 1.8078165 12.822917
-4.4287844 2.3715281 1.7977064 12.503798
-1.1882483 2.2517588 1.9869328 15
2.3406153 2.3112569 1.9983882 12
2.5505793 2.3485997 1.9846599 11.8125
4.9036841 2.471909 1.5432081 14.621094
5.3771725 2.4569707 1.6130668 13.841122
5.7159691 2.3623054 1.7652206 12.758962
6.3143644 2.2576756 1.7162282 13.837498
6.7084985 2.1566913 1.7113514 13.320227
7.2386403 2.0642035 1.7327819 13.739565
7.6648679 2.0093985 1.893002 14.566406
-8.2281551 2.6899543 1.6803992 13.440109
-5.9586983 2.5165908 1.9777027 11
-4.382947 2.525878 1.7992508 13.772613
-2.7410483 2.9146447 1.99431 13
-1.1529667 2.70363 1.9370005 14.582683
2.683881 2.806524 1.913415 12.63125
3.2432964 2.8906748 1.6225981 12.665709
3.7463067 2.7819016 1.7488914 11.420616
4.2219162 2.6963496 1.7580191 11.805714
4.684411 2.6031692 1.7353331 12.541643
5.1401644 2.5147681 1.7247744 13.463882
-8.1926422 3.1026459 1.7316341 10.615471
-4.3046932 3.4899178 1.8967954 13.37494
-2.5605156 3.3156016 1.9796426 13.5
-1.0510459 3.2820566 1.8695288 14.166667
-0.9487524 3.4338553 1.8946056 13.827084
0.7380563 3.4227939 1.7443768 14.550417
1.3163676 3.3216493 1.7517145 14.709617
1.8146051 3.207953 1.6675328 13.523089
2.2104728 3.1330414 1.6008315 13.820919
2.7131319 3.0332 1.7080997 13.543755
4.1988602 3.4702044 1.6620294 9
-8.0422344 3.8970122 1.6791112 10.507134
-7.9809303 3.7019901 1.7385116 13.470703
-4.215663 3.7926154 1.8343456 12.490284
-2.1209359 3.9567041 1.7587361 13.279785
-1.7859378 3.9018707 1.7257823 13.460665
-1.2650334 3.8042042 1.7609781 14.415657
-0.7866683 3.7172675 1.8518944 13.969578
-0.24702933 3.6370227 1.6631393 14.324688
0.16487187 3.5735989 1.7990291 14.657825
4.4403687 3.5351782 1.7517833 8
5.1037831 3.9743645 1.9737974 8
-8.021944 4.0976 1.6044469 10.123291
-7.9397826 4.2861223 1.6985312 12.29234
-4.6418037 4.4471068 1.6309078 13.319377
-4.2074914 4.3502517 1.7554835 13.515596
-3.7918367 4.3621006 1.7299427 12.366272
-3.2190759 4.1786265 1.7846264 13.35646
-2.7599266 4.1181965 1.7419192 13.141479
-2.3272874 4.0524845 1.7978963 13.312736
-1.7569311 4.0173168 1.7036054 14.1
4.3822074 4.1481886 1.7042967 8
4.8320971 4.0417595 1.829983 8
-7.8614869 4.7636871 1.6779215 11.525525
-7.1919317 4.9604006 1.7415065 12.374213
-6.7317677 4.8824701 1.6773511 13.441344
-6.2859526 4.818748 1.7572342 13.669507
-5.7467456 4.7290902 1.7267257 13.718138
-5.2207241 4.6447916 1.6362761 13.275051
-4.9064937 4.5604639 1.8207432 14.25
-7.7391472 5.1316948 1.7689906 13.810961
-7.329958 5.1246543 1.7161869 11.875
-6.7571068 5.0605049 1.6711214 14.833334
5.0453134 6.2837415 1.9049323 12
5.7168121 6.1345801 1.9589305 8
3.7227736 6.591917 1.9474626 13.875
4.4518795 6.5257545 1.9335424 14
5.3851061 -15.508915 2.2661619 9
5.8565707 -15.597893 2.3492122 9
6.2396913 -15.654312 2.3590767 9
3.3588428 -15.092365 2.1009102 10.666667
3.8920827 -15.190111 2.2309382 10.875
4.2089458 -15.254865 2.1875236 9.916667
4.7978425 -15.390407 2.3119597 9.8055553
5.3216295 -15.475387 2.4333203 10
5.609024 -15.498171 2.4094787 10
1.8763946 -14.763393 2.366693 14
2.1396637 -14.810675 2.2546353 13.027778
2.8018467 -14.950872 2.2385528 13.465279
-0.90623617 -14.225363 2.1929703 11
5.905571 -13.010297 2.1365137 9.9861107
3.8752782 -12.578054 2.1278057 13.883408
4.2301884 -12.655711 2.2815366 12.51593
4.8006582 -12.764429 2.3776836 11.233725
5.3353162 -12.825188 2.3548219 11.233334
5.6846433 -12.70213 2.4372923 10.25
6.0536985 -12.716346 2.1875024 9.791667
2.3597217 -12.220859 2.3073008 13.570646
2.7557287 -12.298044 2.267128 12
3.2286897 -12.344038 2.3040998 13.104252
3.7545886 -12.18003 2.4122684 12.25
4.200778 -12.055267 2.3882377 12.666667
5.6710944 -12.166307 2.3868635 10.666667
6.1331587 -12.270514 2.2149334 10
-0.5785197 -11.603577 2.1392155 11.84375
-0.21331543 -11.685684 2.1864996 12.631511
2.2532349 -11.855387 2.2000599 13
2.8402476 -11.859094 2.3032212 12.719962
3.2508337 -11.844275 2.2988329 12.75
3.730248 -11.626909 2.3918452 12.5
4.1502705 -11.77287 2.3555574 12.25
4.7255688 -11.760909 2.3668096 12.791667
5.9266601 -11.87259 2.344151 10.5
6.2084899 -11.684307 2.2754149 10.25
-0.93352675 -11.431494 2.253212 11.5
-0.2236664 -11.23421 2.2289722 11.944446
1.668864 -11.070693 2.1209311 14.361465
2.297497 -11.240242 2.1558092 12.628384
2.7779329 -11.250652 2.2931252 13.184524
3.287652 -11.157143 2.355361 12.854166
3.7228816 -11.313537 2.3717866 12
4.186697 -11.268532 2.4097662 12
4.9096375 -11.127413 2.3785677 11
6.4186649 -11.343487 2.2141891 10
-0.56208944 -10.749665 2.3399186 12
0.24201247 -10.805657 2.1308851 11.939453
0.81201184 -10.734907 2.2307599 13.205801
1.0283674 -10.944556 2.068552 14.48305
1.8962486 -10.510499 2.3070252 13.75
2.1511846 -10.583102 2.3111479 13.388889
2.7597399 -10.613764 2.3011651 12.333333
3.2094603 -10.96019 2.3746665 13.25
3.6936035 -10.814021 2.3564556 12.983335
4.1716847 -10.824781 2.3429179 12.097222
4.512044 -10.622252 2.320044 12.1875
5.2664709 -10.766124 2.3500328 11
6.4420147 -10.993988 2.1821928 10
6.532135 -10.575996 2.1958075 10
0.3673507 -10.040574 2.2980759 13
0.79803884 -10.12077 2.262043 13.75
1.2643611 -10.235399 2.2625086 13.226852
1.7755625 -10.156717 2.2625868 12.625
2.2709503 -10.383804 2.2843125 12.5
2.7756343 -10.138731 2.2739418 14
3.2635553 -10.227633 2.2760253 12.888888
3.7364223 -10.240466 2.2787132 13
4.3075619 -10.293329 2.3105414 12.25
4.7326498 -10.235949 2.2797537 12.092014
5.890028 -10.118155 2.3019342 11
6.6211243 -10.293166 2.1022041 10
0.25051117 -9.7101126 2.23136 12.5
0.75284266 -9.790554 2.2106428 12.875
1.3017049 -9.7181778 2.174252 12.5
1.8604205 -9.8139687 2.2195201 14
2.2924466 -9.7584181 2.2146137 13.466666
2.7466428 -9.6764097 2.2330194 13.085938
3.3568888 -9.7048235 2.1925685 13.666667
3.7447295 -9.7535973 2.2386096 13
4.2540274 -9.8786545 2.2373991 12
4.8193984 -9.8272495 2.2466049 11.932292
5.2011757 -9.7165298 2.2498336 11.416667
5.9170442 -9.5695047 2.2105412 11
6.1045694 -9.8283825 2.2741148 11
6.7087741 -9.8639336 2.0805597 10
-0.057577133 -9.4214821 2.2051654 12.5
0.191888 -9.4646101 2.2044795 13.375
0.58350474 -9.2279863 2.1354232 12.597221
1.3020355 -9.3267212 2.1882851 13.891667
1.8484687 -9.3225117 2.2064543 13.420139
2.3085051 -9.2803698 2.1561646 14.125
2.7315538 -9.1961508 2.1769967 13.877977
3.270973 -9.2250547 2.2037539 13.190972
3.7878397 -9.3040266 2.2215815 12.95
4.1566629 -9.3704891 2.1072164 14.46875
4.5999212 -9.3587046 2.1038709 14
5.3244467 -9.348835 2.1904917 11.645834
5.7897716 -9.1333923 2.1809893 11
6.2056627 -9.1182671 2.1851678 11
6.7871609 -9.4100208 2.0875008 10.28125
0.20581919 -8.9281969 2.105356 12
0.74571311 -8.8410969 2.1630483 13.083333
1.2959774 -8.6156807 2.1562116 14
1.7864562 -8.7447739 2.1593611 13.944445
2.1762571 -8.8295469 2.1604404 14.157988
2.6880035 -8.7309637 2.1489673 13.988715
3.246074 -8.7429409 2.1532428 14.311111
3.7189128 -8.7415733 2.156002 13.858797
4.1940026 -8.8137522 2.1909051 12.842593
4.7186337 -8.6396112 2.1817672 12
5.4213543 -8.9662294 2.0614166 11
5.8560748 -8.7143879 2.0844498 11
6.1898832 -8.5921211 2.1658282 11
6.7174788 -8.8349056 2.1376607 11
0.9102515 -8.4949074 2.0841885 14
1.290279 -8.1472197 2.1205127 14.416667
1.8779324 -8.3099728 2.1058068 14.069446
2.0892749 -8.3041286 2.0981951 14.180556
2.7474995 -8.1373749 2.1229308 14
3.215488 -8.1398802 2.1196232 14
3.7538502 -8.3087635 2.1379309 13.375
4.3286352 -8.2770176 2.1340671 13.203704
4.6774445 -8.209013 2.1439776 12.538196
5.3633995 -8.1825218 2.1504459 12
5.8770123 -8.0584068 2.3000188 12
6.2675447 -8.1000195 2.2209613 11.371962
6.8036165 -8.3094168 2.2510135 11.441668
7.0569096 -8.1663971 2.3673217 11.5
0.80662459 -7.6828184 2.0518041 13.333334
1.1625338 -7.7434459 2.0522287 13.902778
1.6986927 -7.6948538 2.0394773 14.291667
2.3129208 -7.6307387 2.0887144 14.347223
2.8326778 -7.7091417 2.1539328 14.703125
3.2333066 -7.7409759 2.2206752 14.512732
3.7182717 -7.7090812 2.2886159 14.693686
4.1013908 -7.8215942 2.120574 14
4.8386593 -7.8011565 2.11431 12.833334
5.4406476 -7.8339634 2.1773295 12
5.7688632 -7.8551416 2.2270985 12
6.3895454 -7.9460173 2.0097344 11
7.1716142 -7.7078142 2.2583292 13.026621
1.346628 -7.1463494 2.2506008 14.627083
1.8102229 -7.2194033 2.2202682 14.889468
2.2299078 -7.2557044 2.1319871 14.597956
2.7468109 -7.3734217 2.1984241 14.843733
3.2392764 -7.4320717 2.1807387 14.748348
3.6710277 -7.3941479 2.0969062 14.868055
4.0171504 -7.4898024 2.1515586 13
7.2819552 -7.2497439 2.3520892 12.526333
1.2998042 -6.9475489 2.1136637 14.78125
7.392724 -6.6920781 2.1654406 11.779384
7.4535561 -6.3227463 2.0484846 10.875
3.9654355 -5.5419064 2.002141 15
7.9268942 -4.1280603 2.3788543 14.550991
7.929143 -3.937572 2.3009875 14.213371
8.0279961 -3.6979282 2.0978868 14.197242
4.6411476 -3.1312718 2.0510616 14.999779
7.3957481 -3.0448027 2.0350997 14.157551
7.8071356 -3.1914313 2.1423278 14.438552
8.1555519 -3.1253982 2.2161999 13.217151
4.275805 -2.8443508 2.0295215 12.875
4.8693419 -2.5254645 2.0072305 15
5.2488317 -2.5590394 2.1986732 14.808256
5.6389966 -2.5257864 2.4546685 15
6.340198 -2.7997761 2.0884104 14.791667
6.780364 -2.878685 2.2033372 14.60392
7.1497641 -2.9557922 2.0824573 14.875
8.2101126 -2.8746071 2.2228551 12.946456
2.7462118 -2.0313251 2.2517395 12.370068
3.291286 -2.1611814 2.1846313 14.455502
3.7900338 -2.2735496 2.2524047 14.660324
4.2405043 -2.3554897 2.2079687 14.4303
4.7418833 -2.2841539 2.2488248 14.690648
5.0946712 -2.1390476 2.2491257 14.083334
8.3404713 -2.1994796 2.2067707 14.503992
-6.8536253 -1.5864896 2.2966337 13.4375
0.81948531 -1.6617196 2.0959351 14.758334
1.2528417 -1.7318511 2.2407181 14.336968
1.7133591 -1.8187644 2.2687302 13.904726
2.2781367 -1.9310262 2.2689955 13.094138
3.6794946 -1.5922844 2.4743648 11.6875
4.9739695 -1.9852965 2.2208762 14.046637
5.007997 -1.9928913 2.2754338 14.52474
6.7837138 -1.5472443 2.4689178 13.5
7.027802 -1.7671441 2.442008 9
8.4295807 -1.7680161 2.2802172 14.826929
-9.1947327 -1.3771158 2.361419 11
-8.6677113 -1.3704928 2.3656471 13
-5.036562 -1.0382282 2.1088996 14
-4.8320494 -1.0629938 2.3583906 14.875
-4.2459545 -1.1598854 2.1196625 14.666667
-3.8511312 -1.2091496 2.1133173 15
3.6794195 -1.1360391 2.4276335 11.484375
6.9430866 -1.3004838 2.4098725 12.068487
7.0995541 -1.2413858 2.4337232 12.689087
8.4983206 -1.4428335 2.1231115 14.544619
8.5354424 -1.2707511 2.3348064 14.163671
-5.6988745 -0.54603529 2.1055291 15
-5.4787445 -0.97669435 2.220645 14
-4.5862856 -0.52806121 2.2989402 14.375
-4.2153044 -0.5918678 2.2902842 14.518518
-3.8355749 -0.7107864 2.1786973 14.875
-1.8675013 -0.99345887 2.0594823 15
3.8024902 -0.6933468 2.413959 12.633511
6.9511404 -0.7841258 2.4144926 12.468628
7.1575356 -0.70649827 2.4112468 13.986234
7.6149607 -0.73211241 2.497391 15
8.6272106 -0.74657261 2.1381583 14.115502
-8.3614616 -0.053900272 2.0058844 14.666667
-7.958569 -0.12223384 2.0281749 15
-7.2788801 -0.12999175 2.2417634 14.199653
-6.7557096 -0.10368066 2.1233873 13.275608
-6.1780009 -0.31601584 2.1914692 14.010912
-5.8152585 -0.26434299 2.1834877 13.283421
-5.3001852 -0.39860553 2.3073559 13.541667
-4.9561429 -0.27062711 2.2681489 13.300926
-3.700603 -0.26419264 2.3474319 14
-3.2821915 -0.13318555 2.2228642 14
3.8244269 -0.26441756 2.4100287 12.002469
4.2469993 -0.15063661 2.4468911 12
6.9767656 -0.4675824 2.4032295 13.75
7.1786795 -0.2494013 2.3999133 14.661519
8.7431641 -0.24074805 2.2361369 14.256454
-8.6559811 0.24857847 2.2600579 14.322863
-8.2044897 0.40108269 2.1579852 13.734329
-7.7966824 0.18855526 2.3879459 12.74902
-7.2449694 0.071336597 2.273901 13.054506
-6.6318755 0.15663056 2.3988323 13.190972
-6.4082541 0.24668908 2.2850919 13.666667
-5.7431707 0.14664319 2.4920282 14.027778
-3.2032261 0.27884945 2.2819207 14.725
3.8780825 0.25512168 2.3868859 12.663626
4.0407925 0.33582714 2.3538971 11.645834
5.347898 0.28924617 2.1777608 14.474467
7.195406 0.086810403 2.3705196 14.25
8.8348522 0.18007183 2.2898891 13.313205
-8.6577444 0.80013806 2.2800968 13.715472
-8.2296171 0.6639722 2.20736 13.934143
-7.579906 0.51483226 2.4894142 14
-7.100347 0.62456834 2.3884757 13
-6.6425948 0.70529026 2.2304707 13.041667
-6.3558822 0.82870096 2.2538805 13.3125
-5.6816969 0.90118313 2.4461479 14.5625
-3.1513264 0.71443719 2.2485578 14.766665
2.0628529 0.93055487 2.1203089 13.507851
3.9552398 0.73831296 2.3096845 14.398226
4.0766525 0.72513193 2.2701652 12.517796
5.4033203 0.74932623 2.2776394 14.853352
5.5855961 0.78497231 2.1332836 14.78125
6.2975693 0.8976323 2.3908508 15
7.3530741 0.82086611 2.350163 14.183459
8.9328537 0.62004697 2.3279181 14.761429
9.0141344 0.98265779 2.072629 7
-8.5933056 1.2343843 2.3873863 13.379105
-8.2266388 1.2165494 2.4923029 12.701388
-6.971343 1.4168433 2.4023805 13.666667
-6.3637242 1.2047653 2.1835239 13.041667
-3.0940037 1.258727 2.2119417 14.75463
-2.9713125 1.3753679 2.2056904 14.5
2.1588075 1.2912976 2.1391828 13.516818
4.145185 1.4948059 2.2478094 14.523927
5.4912934 1.408 2.1376216 14
5.6288595 1.3245858 2.2186327 14.646361
7.3996062 1.2538575 2.2963479 14.433944
9.0424557 1.2210718 2.3654313 14.917465
-8.2501745 1.7695504 2.388675 13.458794
-7.5609326 1.9358332 2.3895602 14.25
-7.2203031 1.8540539 2.4706979 12
-6.85495 1.7731742 2.385407 12
-6.2769499 1.7306846 2.1584687 13.263952
-4.850512 1.9323465 2.4723201 14
-3.1722674 1.7571795 2.2946296 14.666667
-2.905966 1.7086041 2.1968861 14.71875
-1.2079542 1.7952945 2.0276093 15
2.2516644 1.769874 2.1869187 13.261027
4.2165613 1.7557887 2.201292 11.263016
5.749023 1.7473359 2.1292036 13.586435
7.743187 1.9720175 2.1883576 13.377721
8.2821932 1.8655678 2.290627 13.190389
8.7401333 1.777832 2.2121534 13.868012
9.1129484 1.6702833 2.2063367 13.445549
-8.3346443 2.1809766 2.2670619 13.326453
-7.8432326 2.1973436 2.406204 14.175
-7.4595981 2.3115175 2.3473141 14.333334
-6.7746153 2.2600203 2.3954597 15
-6.1609626 2.2459183 2.100029 12.65172
-5.2320042 2.4357877 2.4000082 13.755208
-4.7225275 2.2280798 2.4753714 14
-4.2441311 2.2735891 2.1773052 14.5
-3.9457932 2.2409229 2.3890247 14.9375
-2.9913404 2.001313 2.1556773 15
-1.0816511 2.2743502 2.0483344 15
1.1544805 2.2311821 2.1798949 15
1.6715307 2.0039768 2.4997463 15
2.351053 2.2449477 2.173188 13.233547
3.4182115 2.2387681 2.4111156 13.203125
3.857501 2.1604359 2.4238386 12.348854
4.2316952 2.0380917 2.1839516 13.350043
5.4173236 2.4780622 2.2074547 11.741121
5.7390156 2.3270226 2.1873605 13.523746
6.3174648 2.2720666 2.0908701 14.296738
6.8179665 2.1742041 2.1649292 13.872307
7.2532201 2.0947924 2.2886651 14.007383
7.6319842 2.0251429 2.2643721 14.218689
-8.2164688 2.725147 2.3954926 14.034823
-7.8913317 2.6793447 2.3298116 13.191668
-7.3265014 2.973881 2.4052677 15
-6.787621 2.7667141 2.3682985 13.34375
-5.9716892 2.5875387 2.0714788 12.59375
-5.1386075 2.6088552 2.3781381 13.9375
-4.7804337 2.7220049 2.4574349 14.420525
-4.3977151 2.6617317 2.0902114 13.25
-2.7205694 2.8221993 2.1478267 13.81144
-0.97985274 2.5907912 2.0849683 15
1.1691349 2.6115308 2.2209711 14.833333
1.7591459 2.7499502 2.4116588 14.980469
2.4046237 2.782048 2.1542335 12.960319
2.6974027 2.5718031 2.0788651 14.358534
3.3192003 2.9021363 2.0808516 11.533316
3.8679361 2.7982943 2.2731633 12.08258
4.2202125 2.7063313 2.1834774 12.138149
4.748024 2.6147871 2.2160273 12.473558
5.1563425 2.531532 2.255507 12.164062
-8.1681223 3.1399724 2.2705288 13.214627
-7.8161554 3.2878854 2.3759799 14.367436
-7.3052096 3.172591 2.3983269 13.75
-6.0023575 3.2330906 2.0465605 14
-5.84484 3.2342129 2.0713315 14.458334
-4.1590443 3.3067074 2.246484 12.530092
-2.6924355 3.3048339 2.1969266 14.039062
-2.3071253 3.3453338 2.272845 14.333333
-0.89034796 3.196799 2.1612563 14.9375
0.60090286 3.4850066 2.1228576 15
1.2301497 3.3532443 2.1185946 14.882434
1.7424552 3.2458954 2.2734737 13.885769
2.3471603 3.0708795 2.1738095 14.092269
2.7128444 3.0502601 2.2404151 13.98112
-8.0380583 3.7561271 2.3194091 13.703063
-7.950839 3.6596088 2.3830037 14.651814
-6.3979912 3.7369194 2.1822612 14
-5.7926488 3.8090591 2.0746264 14.937497
-4.7677755 3.7666826 2.3394861 13.125
-4.1882224 3.8362229 2.2748754 14.151431
-3.9913592 3.7860789 2.2869809 14
-2.8025336 3.8028002 2.3326645 14.5
-2.0246177 3.9716725 2.1284218 14.4
-1.7136879 3.8822932 2.0715232 13.869792
-1.1926843 3.7521048 2.3311577 15
-0.78903162 3.685683 2.2383583 14.677343
-0.1512495 3.6211329 2.1139722 15
0.18059163 3.5656321 2.1078064 15
-8.0339079 4.0307493 2.1028843 12.5
-7.7672434 4.2535663 2.1947446 13.414062
-7.0642004 4.3389535 2.4670963 15
-6.778441 4.4474902 2.4324903 15
-6.0194769 4.1137972 2.1679728 13
-5.6938972 4.0477905 2.1649525 14.979167
-4.6030664 4.4976759 2.3125687 12.236111
-4.2085214 4.2803655 2.2568204 13.412976
-3.7903576 4.394465 2.2152221 13.407987
-3.2465978 4.2197499 2.1649213 13.720721
-2.7547534 4.1231227 2.2356908 13.679885
-2.3856795 4.0544796 2.1518395 13.729402
5.5663166 4.4534111 2.0320492 8
-7.7009859 4.7130313 2.2318366 14.521596
-7.2389064 4.8190422 2.3299356 13.891888
-6.8400831 4.8498302 2.2639244 13.955466
-6.2793365 4.8287926 2.2002296 14.137755
-5.7818689 4.7329569 2.1730554 14.062074
-5.0599208 4.5960617 2.2754307 13.889323
-4.1146393 4.5025759 2.3745208 14
4.3393822 4.6286821 2.134542 14.5
5.1717091 4.9023194 2.0117764 13
-7.6851416 5.1695681 2.1495938 14.832108
-7.3336396 5.0823607 2.3772764 14.23951
6.5881538 5.8575554 2.2821598 7
4.7072406 6.4431028 2.2820191 13.857639
5.2182503 6.2515249 2.161561 14.0625
3.5639687 6.6251917 2.250988 14.222223
4.3619165 6.5415754 2.1975656 14.5051
3.4851928 7.1835222 2.2247152 15
3.7304783 7.7367291 2.2216489 12
4.9902616 -12.770256 2.5122519 11.5
5.7132678 -8.0216408 2.6875858 13.330729
6.2343636 -8.1010838 2.7849758 13.152779
6.7718873 -8.2060432 2.7172239 12.626063
7.0415497 -8.2317142 2.7053723 12.25
3.6194208 -7.5974231 2.640703 15
4.1701727 -7.7189474 2.6885626 14.98125
4.9998245 -7.8972855 2.6954064 14.722223
5.2559834 -7.9288349 2.7227733 14.208591
5.6152577 -7.9802322 2.8223855 14
7.0426164 -7.9535208 2.8571005 13
7.7826076 -4.7445488 2.8979349 14.645525
5.4512081 -4.0559978 2.8943853 11.125
5.8281369 -4.2674384 2.821377 15
6.3146152 -4.0993938 2.7179275 14.484375
6.5437417 -4.1703424 2.7988315 13.75
7.1939044 -4.3343325 2.8652511 13
7.8284459 -4.4199238 2.7322559 14.308764
3.315016 -3.6711977 2.9314592 15
3.8487861 -3.7548649 2.9191003 14.25
4.1588182 -3.8406053 2.9340839 14.923828
4.7049265 -3.9213567 2.9199643 14.078125
5.2345457 -3.9992344 2.938215 12
6.3645983 -3.9330502 2.6828375 14.3125
3.1893952 -3.4163947 2.6093524 14.875
8.1617975 -3.0768504 2.6968751 14.914375
6.5799417 -2.5435789 2.8483672 14.921875
7.2166438 -2.7569079 2.7618093 14.760361
7.7976785 -2.6243138 2.8061233 14.122345
8.1855011 -2.8070359 2.752871 12.999377
-8.6089678 -2.4490385 2.9042499 14
2.7558131 -2.0115781 2.5456495 14.625
3.2295671 -2.0752063 2.8224351 13.979079
3.8210325 -2.2103105 2.6916363 14.195585
4.3351111 -2.2590277 2.7058995 14.885125
4.7818565 -2.2438409 2.6951854 14.237288
5.2132959 -2.3154035 2.8544061 14.224882
5.9136467 -2.2111659 2.8076644 14.765565
6.277504 -2.3331823 2.7988968 14.67625
6.7862267 -2.2756622 2.6868677 14.439585
7.1512718 -2.3494453 2.8223224 14.694681
7.9586053 -2.2857909 2.828733 14.737901
8.3016958 -2.2179596 2.7962017 13.123638
-8.8081312 -1.656786 2.8042617 13.916666
-8.2786732 -1.7014822 2.8660078 14
-7.4618235 -1.5588806 2.8535333 14.5
-6.9330139 -1.6491103 2.5593932 14.5
-6.4512577 -1.704309 2.6463051 14
1.4797676 -1.7540661 2.5011339 14.910591
1.7968636 -1.7535955 2.7041247 14.81255
2.2795935 -1.8143201 2.7267957 14.275974
2.7879653 -1.7411778 2.7988658 14.039419
3.2569621 -1.7192153 2.7329938 14.144446
3.6970205 -1.7738786 2.6768422 12.562409
4.3796501 -1.9450791 2.7471685 12.910156
4.7705679 -1.9497926 2.7447691 13.224982
5.1577325 -1.7912197 2.8138981 13.920998
5.652215 -1.8727777 2.8660305 13.355624
6.3863888 -1.7110523 2.8070929 13.229218
6.8531075 -1.696067 2.6314106 14.495068
7.252851 -1.7107495 2.7739427 14.421875
7.7748699 -1.7817779 2.7442446 13.924805
8.3230696 -1.7788156 2.8018005 14.144026
-8.8379097 -1.3735235 2.7245793 12.25
-7.6436796 -1.3804729 2.8738654 15
-6.5008783 -1.3765211 2.6865559 15
1.8488004 -1.3123027 2.7417312 15
2.22879 -1.3904446 2.8234944 14.70761
2.7324672 -1.2631999 2.8892548 14.40802
3.6373186 -1.369216 2.6475627 13.368464
4.0779905 -1.2833357 2.8136294 13.226562
4.7773905 -1.2020924 2.7651181 11.15625
5.1706624 -1.2622908 2.8293891 13.054003
5.7270994 -1.393014 2.7660408 14.900627
6.2114363 -1.4936029 2.8116512 14.875
6.875246 -1.2579103 2.5212274 14.98148
7.9692636 -1.4646063 2.630595 7
8.1987095 -1.2871513 2.6895115 14.555956
8.5606089 -1.2546083 2.7977345 13.657309
-5.2836933 -0.99572867 2.5330303 15
-4.6462283 -0.53615564 2.5937369 14.916667
-3.5161066 -0.5498535 2.5289812 15
-3.2568402 -0.56201345 2.511503 15
2.3080788 -0.71627945 2.7730339 14.993055
2.7320065 -0.82162464 2.7254567 14.752266
3.4324338 -0.95542753 2.8057489 12.937521
4.878757 -0.7655102 2.7553442 14
5.3033714 -0.73667383 2.820035 11.839905
8.3759613 -0.69029999 2.8183055 14.344513
8.6611309 -0.77432054 2.7772477 14.304087
-6.7839365 -0.043761663 2.6180942 14.114583
-6.1666937 -0.20682427 2.6749144 13.84375
-5.7734771 -0.2968466 2.5809677 13.981481
-5.195209 -0.13429898 2.6174645 14.608333
-4.7380524 -0.26998878 2.550643 14.645834
-4.4029098 -0.24403498 2.7071896 14.8125
-3.6900454 -0.21710873 2.5485818 15
-3.3965461 -0.20624892 2.5285234 15
4.6478672 -0.17918062 2.5669212 12
5.4101453 -0.28846073 2.7830095 12.138581
5.6199965 -0.213175 2.7813749 10.0625
7.1309109 -0.48200244 2.5208559 14.483185
8.7341185 -0.24520363 2.7696095 14.72992
-8.6851711 0.41596711 2.7769461 14.138672
-8.294466 0.27199337 2.6757154 14.262954
-7.7919598 0.42520949 2.5855894 15
-7.4786119 0.13808499 2.5721021 13.4375
-6.9258204 0.19624692 2.785768 13.958333
-6.1862011 0.19378051 2.7159724 14.513889
-5.948009 0.22643661 2.8360674 15
-5.1701012 0.17592233 2.6280465 14.652778
-4.8074846 0.10930198 2.7149332 15
-3.6723228 0.29565853 2.5794137 15
-3.2470813 0.44167048 2.5091257 15
3.4614029 0.44550419 2.6953311 14.69043
3.5919266 0.39381605 2.6436162 12
4.3641481 0.24396959 2.6939747 12.453125
4.8753862 0.14407533 2.6045747 12.490071
5.4465818 0.18363363 2.809468 12.733032
5.6491661 0.28219563 2.7376437 12.96875
8.7834635 0.090572193 2.8156481 14.576751
-8.2389641 0.70279425 2.6732252 14.47743
-7.8604422 0.72323501 2.7222555 13.635417
-7.3831019 0.52138382 2.9670351 13.989584
-6.5671072 0.61254585 2.6305189 14.458334
-6.2748041 0.80961353 2.7444172 14.375
-5.6395311 0.63228792 2.5767202 15
-5.1123042 0.66249329 2.5851817 14.6
-4.9094028 0.77285296 2.5804212 14.652344
-4.3898892 0.77657521 2.7400534 15
2.2585266 0.80253291 2.6784577 15
2.7358434 0.6270116 2.7596984 14.350098
3.3514929 0.57045329 2.9444654 14
3.5346668 0.55459583 2.9527104 14
5.4413023 0.6957314 2.5035563 14.808257
5.6538005 0.65857363 2.695565 13.111111
6.8681297 0.96498287 2.5951052 15
7.0294957 0.91925502 2.5782814 14.993805
7.7749186 0.80041772 2.6320343 14.218994
8.1979761 0.8421157 2.7520585 14
8.788415 0.80625576 2.7318125 13.38293
9.0269928 0.89752805 2.5889897 14.377905
-8.5900068 1.2688066 2.6473875 15
-8.188345 1.3128986 2.7570739 14.522425
-7.8601718 1.4460921 2.5955017 14
-7.2434902 1.4056605 2.9787397 14.111111
-6.5955486 1.4331266 2.9676545 14.25
-5.5721617 1.3915069 2.5334661 14
-4.8616424 1.2474988 2.6587105 14.699074
-4.2786541 1.1090437 2.8335822 15
-3.6892657 1.2607896 2.7458208 15
-3.4989443 1.3061535 2.6834781 15
2.2906857 1.2706779 2.6802418 14.948334
2.630559 1.4508488 2.7727752 14.875
4.3372831 1.4579711 2.5197291 12.60815
5.7226334 1.0770818 2.6001828 15
6.0559478 1.1041776 2.742012 15
6.8528862 1.0198572 2.641227 15
7.1425486 1.4491071 2.5209186 14.748047
7.7388067 1.2820024 2.7892833 14.819865
8.2295494 1.4333717 2.8791399 13.5
8.8442974 1.302145 2.7198892 13.75
9.1259003 1.2763733 2.7943618 13.795245
-8.1225967 1.7643386 2.7869146 13.76536
-7.7990179 1.8250475 2.8352566 14.002604
-7.3181047 1.8733698 2.9256167 14.166667
-6.8251801 1.7788004 2.9464071 13.847221
-6.2194891 1.5725549 2.8695879 14.166667
-5.9472637 1.6397471 2.7494099 15
-4.691011 1.7140753 2.6508842 14.69375
-4.1838427 1.6980836 2.9519374 15
-3.8242722 1.9854374 2.8567412 15
-3.2134237 1.5498127 2.5007861 15
1.8270773 1.9851688 2.5083811 15
2.3499575 1.784512 2.6726971 14.839399
2.8703294 1.9356754 2.7571783 14
3.2851849 1.7474396 2.7173886 14.083334
3.715435 1.6314278 2.5628052 13.893372
4.3356166 1.8480206 2.6746919 13.060763
4.6341677 1.7906742 2.9942408 14.791698
5.3837309 1.9053878 2.5121584 10.839844
5.7718768 1.7795181 2.6859338 10.372958
6.1602473 1.6349804 2.6972644 12
6.5229154 1.8466196 2.7695246 9
7.3338394 1.8387071 2.9951193 9.53125
7.7233567 1.8402901 2.6163836 14.519754
8.2449112 1.9107422 2.6967971 14.251608
8.678853 1.7506828 2.7566211 14.420679
9.1503868 1.6573244 2.779573 14.193188
-8.1261549 2.1831439 2.692276 14.203092
-7.8239284 2.2379932 2.8020384 13.438542
-7.2226276 2.2402442 2.9163592 14.427084
-6.679882 2.2141652 2.9053631 13.979167
-6.2034717 2.3559101 2.8341415 13.375
-4.6120839 2.1651373 2.7526102 14.564671
-4.0981197 2.2454524 2.8063898 14.625
-3.8550644 2.1988096 2.9068139 15
1.8275126 2.0326915 2.5349932 15
2.4437506 2.1978827 2.6752174 14.726315
2.5559506 2.252059 2.5725415 14.044271
3.0424936 2.1092422 2.8470042 14.125
4.2867966 2.2073469 2.7191768 13.088732
4.6345339 2.166043 2.8294523 12.575642
5.2542076 2.223433 2.9402599 12.723543
5.822391 2.2938211 2.7060244 11.73231
6.2743874 2.311121 2.5916834 12.949168
6.7971783 2.1989751 2.7857704 14.480312
7.3604808 2.109376 2.8234272 13.138021
7.7175827 2.0382957 2.6955681 14.937088
-8.155694 2.6212633 2.631422 14.333334
-7.7564149 2.7220535 2.770453 13.704709
-7.3127437 2.697299 2.9018173 13.863715
-6.7801938 2.7134957 2.8840761 13.8125
-6.2125874 2.8221285 2.8661051 13.25
-4.5467587 2.626195 2.8569517 14.9375
-4.2717433 2.6874201 2.7047403 15
-3.8183188 2.5015693 2.9164877 15
2.3265684 2.6781089 2.761555 14.931251
2.5744045 2.7845652 2.6403341 14.130074
3.1970956 2.7547505 2.8343749 14.111612
4.2936335 2.7385089 2.6234174 12.732916
4.8285475 2.5976884 2.6950424 12.87219
5.2374763 2.5398457 2.652246 12.697548
-7.7335587 3.1329165 2.7854812 13.297525
-7.417665 3.3543315 2.7803049 12.782408
-6.7355323 3.3226478 2.8280425 14.25
-6.2126765 3.1760726 2.7582564 15
-5.9631643 3.3388817 2.715385 15
-3.8118036 3.4238014 2.7747574 14.333334
-3.186398 3.2130222 2.5820022 14.75
1.9228125 3.2351756 2.7555008 14.802654
2.1618719 3.1915388 2.6771216 14.802633
2.5920734 3.0914485 2.6754327 14.311229
3.0364983 3.005465 2.7178404 14
-7.7427864 3.73352 2.637085 14.96875
-7.4288373 3.6299489 2.8070126 13.5
-6.8509207 3.5920374 2.7715287 14
-6.4863567 3.6706479 2.705828 14
-4.2621326 3.6981184 2.7434559 14.145833
-3.6739078 3.8092332 2.7837493 14.486113
-3.3189502 3.7571292 2.7267454 14.63426
-1.799649 3.9392116 2.7350163 15
-7.5882792 4.3367491 2.6242988 15
-6.0796871 4.3964562 2.7584214 13.291666
-5.8296065 4.2724419 2.7661846 15
-4.1156902 4.3380404 2.6877809 13.948042
-3.7611759 4.391705 2.6004171 14.429012
-3.3055048 4.3508363 2.5279865 14.357639
-2.9818919 4.1851292 2.5000975 13.8125
-7.0111475 4.5905752 2.8571496 15
-6.576221 4.9102707 2.5008688 14.998062
-6.1032705 4.8615847 2.6386008 13.5
-5.7334404 4.7454805 2.6385086 13.737269
-5.4073257 4.6102529 2.5966396 12.513889
8.1498775 5.6889482 2.8782055 8
4.9815979 6.4142051 2.5742688 13.75
5.4362268 6.2470045 2.6576846 13.46875
3.9649324 6.6606998 2.5403066 14
4.2021155 6.5680151 2.5005028 13.5
6.0886087 6.6293459 2.9787951 13.75
7.491385 6.9311304 2.7694898 12.5
7.749454 6.8370495 2.8757608 11.5
7.6144357 -5.8131437 3.4896173 10.5
6.9737816 -5.113307 3.4771528 9.135416
7.7249937 -5.1734443 3.3247318 14.524374
4.412394 -4.7430348 3.3273029 14.46498
5.2267098 -4.734376 3.4419732 14.25
6.4587703 -4.6924715 3.4514213 13.5
7.494195 -4.5758362 3.0176444 14.866013
