# .PCD v0.7 - Point Cloud Data file format
VERSION 0.7
FIELDS x y z
SIZE 4 4 4
TYPE F F F
COUNT 1 1 1
WIDTH 84
HEIGHT 1
VIEWPOINT 0 0 0 1 0 0 0
POINTS 84
DATA ascii
6.2456379 -9.6972485 -1.9590865
5.0123072 -8.9261417 -1.8802729
-1.4231454 -6.9266534 -1.6791223
-3.8348427 -6.27911 -1.6279211
-4.2942305 -6.1300659 -1.6246157
-6.5189042 -5.6365581 -1.5759504
-6.2050333 -5.4781661 -1.5463978
-7.4312258 -5.2159557 -1.5393572
-6.947782 -5.2767882 -1.5365777
2.5326018 -5.0577855 -1.4088399
-7.9345093 -4.2855597 -1.416487
8.2376518 -2.8158929 -1.0561619
5.8370285 -2.4722259 -1.0288255
5.8526216 -2.3235774 -1.0187304
0.12687129 -2.1310582 -1.0626764
5.9687347 -2.1796093 -1.0067482
-1.6978037 -2.0986257 -1.0701845
-0.56003165 -1.8851283 -1.0324776
-7.0640769 -1.5009215 -1.0480933
6.2623386 -2.2183313 -0.99926269
8.463644 -1.8771844 -0.93703187
4.9181719 -1.5510895 -0.93877149
5.2511177 -1.5805358 -0.92577869
-1.4471583 -1.0527372 -0.92796469
-6.7102485 -0.85467929 -0.9693355
7.007453 -1.4149395 -0.89831287
6.9319229 -1.3375864 -0.87219328
-6.687458 0.060199849 -0.84279346
-7.0405517 0.14172839 -0.84004736
8.6370478 -0.85492957 -0.78983396
6.6598415 -0.27710855 -0.74609101
0.56840503 0.49143165 -0.72364032
8.2037687 0.06004395 -0.68591392
6.2484894 0.60921246 -0.63503432
3.2979686 0.75792122 -0.64770621
5.3813438 0.82443333 -0.62535316
0.96963376 0.90777135 -0.66119885
2.7293649 0.91996557 -0.62960398
-3.2799294 1.5242682 -0.6131435
-6.2074671 1.6288559 -0.6442306
8.3249931 0.90643179 -0.58385748
5.4530382 1.2322868 -0.56928456
5.6435671 1.309058 -0.5585624
-0.87435174 1.558081 -0.59119153
4.1756258 1.6785626 -0.51575339
5.481885 1.6582088 -0.50670701
2.8873148 1.8699484 -0.51410091
1.6295187 1.9876107 -0.50109154
-3.6862888 2.1618841 -0.55518693
-3.4184587 2.3378747 -0.51692855
-8.235548 2.7186308 -0.53163552
-0.26590794 2.490294 -0.45962349
-0.076001719 2.4518416 -0.4620637
-0.75807667 2.6348839 -0.44491133
-3.2066951 2.7712331 -0.46409506
-2.5518761 2.7741225 -0.46369043
-1.1081843 2.7614112 -0.44570222
5.4300375 3.2898741 -0.30063707
-6.9034996 3.6444955 -0.38728189
-7.0494366 3.7184863 -0.38195413
-7.9267302 4.3637204 -0.3149392
-4.2608185 4.6629295 -0.23722644
-7.2405896 5.0441284 -0.2132256
9.6944313 4.0040145 -0.1676269
-7.2460451 5.3578696 -0.17675605
-3.1473284 5.454381 -0.1090185
-7.0365868 6.2731342 -0.055433586
4.1905909 6.4868402 0.09733028
4.2706389 6.4934654 0.091489606
4.7519093 6.4601808 0.087376043
-2.8101366 6.6873865 0.047480576
10.076045 6.1082516 0.11835937
4.431684 6.5434589 0.11253997
6.7804403 6.5190759 0.13464582
6.8517985 6.5096459 0.11951418
7.5603933 6.7724485 0.16702937
-1.0345628 7.8137627 0.21868615
0.21018623 7.8738942 0.23061021
-0.87069678 8.294239 0.26423895
-5.4589086 9.4633245 0.36333641
-6.4256277 9.6721745 0.39672071
10.475687 8.8134117 0.46200809
9.5172443 9.0201855 0.47535548
8.2612858 9.2651806 0.49531049
