# .PCD v0.7 - Point Cloud Data file format
VERSION 0.7
FIELDS x y z
SIZE 4 4 4
TYPE F F F
COUNT 1 1 1
WIDTH 58
HEIGHT 1
VIEWPOINT 0 0 0 1 0 0 0
POINTS 58
DATA ascii
0.6261664 10.724029 -1.3202089
9.6363525 3.3657694 -1.1067338
8.7109413 4.1477957 -1.1271131
9.4914865 3.0579555 -1.0488249
3.8755839 6.9302444 -1.0958437
9.206749 2.7180653 -0.99236131
1.8575958 7.0954723 -0.9441613
-0.72706497 8.4816618 -0.92203271
8.7433853 1.7456895 -0.82031101
8.7664242 -0.52387452 -0.53677064
-2.9121852 6.1274114 -0.43522483
8.3922796 -1.6126225 -0.36895531
7.2058997 -1.3009193 -0.31318757
5.5070214 0.43052524 -0.39948243
4.8638501 0.78286004 -0.38481367
4.4698219 0.92678189 -0.3713792
3.4220576 1.1721585 -0.31026569
3.1761646 1.3582697 -0.31533337
2.7421591 1.9626911 -0.37164098
-3.2329013 5.3956351 -0.30989113
8.2760792 -2.5429955 -0.24183694
6.9509358 -1.3059713 -0.29251903
0.34733844 2.4422333 -0.22075297
1.4374239 0.73995292 -0.10300052
1.392328 1.3880262 -0.18913731
1.4399695 1.390048 -0.18496534
1.3756009 1.4622658 -0.18967199
1.4190439 1.5102929 -0.18905266
-0.50666904 2.5095501 -0.17270353
-1.2536601 2.779665 -0.13318996
-3.8375943 4.611352 -0.17561175
0.77564085 0.62999094 -0.034588508
-7.1614738 6.0049853 -0.074065626
4.8076401 -2.8640258 0.087484054
5.0304046 -2.7685375 0.055536579
3.3234003 -1.9194162 0.082984455
3.522234 -1.8584224 0.057595719
3.3754697 -1.6872764 0.041440982
3.3401423 -1.5548054 0.039135348
2.6566339 -1.9639441 0.15319425
0.70007408 -1.7488866 0.281928
0.97158897 -1.5831655 0.23444749
0.43635017 -1.4033906 0.25297773
-7.4980221 4.0632715 0.20711574
6.2836771 -5.9714513 0.35553229
-1.5951208 -0.87129009 0.35800302
-8.1097193 3.1348729 0.36226141
-4.3106098 -0.63149309 0.54419148
-4.6654081 -0.33988559 0.53096223
-6.6559486 -0.26487473 0.6953845
-6.722796 0.094253317 0.63835275
-7.062171 0.17057002 0.66764271
-8.5259056 1.2747381 0.64121252
3.9612608 -7.2453241 0.71768117
-8.2467079 0.358946 0.74507976
-8.2374382 0.48620853 0.71370363
-8.1926575 0.43130648 0.72176218
-8.2599125 0.69825387 0.70090377
