# .PCD v0.7 - Point Cloud Data file format
VERSION 0.7
FIELDS x y z
SIZE 4 4 4
TYPE F F F
COUNT 1 1 1
WIDTH 80
HEIGHT 1
VIEWPOINT 0 0 0 1 0 0 0
POINTS 80
DATA ascii
-1.1847551 11.261097 0.070323303
-6.3642745 9.2695084 0.29766607
-7.0862556 8.3876324 0.39212021
-0.77142429 8.5430927 0.33327523
10.018736 6.3238354 0.47063559
-5.2152576 7.1537614 0.49829936
4.8799109 5.4655151 0.59015298
8.1826658 5.4527531 0.58457202
-2.0364428 6.1328635 0.56550837
-1.834766 6.1474047 0.57074308
-5.4181452 6.2544556 0.58738619
-5.1693106 6.2875118 0.58321589
-2.0274856 6.3088713 0.55296057
-5.1567621 6.4896879 0.55922246
-5.2666507 6.5297608 0.55083543
-1.7536793 6.5196829 0.53348285
-5.2724457 6.6845889 0.53453064
8.2013969 4.3566837 0.68391812
8.2311249 4.5706758 0.66493177
4.7603612 4.918571 0.65609348
4.9027233 5.1276417 0.63342196
5.083159 5.2338514 0.61001611
-7.4646811 5.3170137 0.6934557
-2.0322571 5.3453302 0.64535415
-7.1420317 5.7101612 0.64657784
-7.5015726 5.8389053 0.62937772
-7.0427585 5.8385849 0.64011967
-5.4537573 5.8559875 0.62325466
-5.2818179 5.899641 0.62259614
7.8625393 3.3168135 0.78520894
7.9415655 3.4994187 0.76781869
8.0190544 3.559293 0.75900847
7.9496064 3.6948919 0.75354075
4.5586853 4.1307268 0.72778976
-2.1157947 4.6947451 0.71341878
7.8518171 2.8601851 0.82000029
8.6043625 1.1736177 0.98926032
8.5855856 1.281498 0.98237205
8.5574436 1.6601936 0.94880831
-4.6442127 1.9375768 0.99447036
-4.3700161 1.9756534 0.99181342
8.5775442 2.0358112 0.90420091
8.656908 2.0410061 0.91016257
-4.2975054 2.1721497 0.97461689
-4.4900641 2.2898045 0.96058965
-4.1834917 2.3465936 0.95453399
2.306437 0.57525414 1.087487
2.4513159 0.72565091 1.0634223
2.3149176 1.1141493 1.0398694
1.9513752 1.2498591 1.0312457
2.1360712 1.2714722 1.0202291
2.2377167 1.2423872 1.0180973
5.4672027 -0.23183025 1.1537181
5.5289507 -0.110075 1.1292971
5.2873564 -0.04878217 1.1219475
5.63482 0.10586159 1.1028622
-6.1900702 -0.91864675 1.2783029
-3.8525977 -0.75194389 1.2482074
-5.6827326 -0.35915679 1.2256751
-5.3429632 -0.39663675 1.2316241
-6.0278797 -0.19080852 1.2059808
8.2910118 -2.4778771 1.3425667
4.2456622 -2.3934417 1.3594904
0.13581002 -1.6389015 1.3160477
8.2207747 -3.1182404 1.4117188
7.0501013 -3.0029573 1.4046441
7.2511215 -3.0333819 1.4027166
6.6599398 -8.1816626 1.8970878
6.6352735 -7.8328466 1.8660154
3.4920218 -9.5206394 2.0596893
4.1302228 -9.4157324 2.0523605
6.4420147 -10.993988 2.1821928
5.8042736 -12.12417 2.2915854
2.9323874 -11.947979 2.2972391
2.6785116 -11.885429 2.296402
5.9888039 -11.889901 2.276504
6.2210093 -11.849205 2.2589364
4.03894 -11.7666 2.2751422
6.4186649 -11.343487 2.2141891
6.109026 -12.296673 2.3067265
