# .PCD v0.7 - Point Cloud Data file format
VERSION 0.7
FIELDS x y z
SIZE 4 4 4
TYPE F F F
COUNT 1 1 1
WIDTH 72
HEIGHT 1
VIEWPOINT 0 0 0 1 0 0 0
POINTS 72
DATA ascii
-4.2659245 1.7460588 -1.5012341
-3.1707692 1.56557 -1.4354913
8.3144817 -0.8361522 -1.2986375
0.63969123 1.1133325 -1.0162059
1.4865395 1.0738463 -0.83460712
-8.0529156 3.1712813 -0.82894802
-8.0839167 3.3415878 -0.65510011
8.8128719 -0.29681134 -0.56228745
3.7135859 0.82967883 -0.56267995
1.2799907 1.3689539 -0.55259961
0.51270461 1.5605216 -0.53379756
-1.4003115 1.9813775 -0.51362419
-1.1183823 1.9409752 -0.50217998
7.5962815 0.082885146 -0.42833054
1.6300802 1.3605347 -0.47096658
1.6999235 1.4670761 -0.32851547
-8.0255213 3.6255128 -0.32761639
8.2011337 0.18797803 -0.15506779
-6.5737844 3.4516423 -0.13917974
-5.8357172 3.5235486 0.11487546
-5.8128099 3.6404574 0.25844228
1.5247142 2.1936672 0.44597149
1.4478709 2.2526841 0.48319033
1.6030408 2.2240767 0.49527645
0.50189239 2.4643171 0.49012321
-0.11962999 2.5738142 0.45534378
-0.5312674 2.6656981 0.46952146
-0.29649672 2.6215823 0.46969008
1.343888 2.2832365 0.50016558
-0.11882246 2.6329999 0.53446668
0.55637181 2.9947731 1.0964041
-1.9070599 3.5425084 1.1213292
-6.8813143 4.7571249 1.2500007
-0.25395891 3.3761079 1.3453878
-1.8740087 3.7160578 1.3088499
-5.1662474 4.4221334 1.3011297
-6.4753027 4.7289166 1.3096021
6.5456944 1.9820685 1.453172
5.5744777 2.1996245 1.4624547
5.7467613 2.1692071 1.4571352
5.9666104 2.1379881 1.4887471
5.2827134 2.2644157 1.4448576
5.5082865 2.2397127 1.4865968
4.6859226 2.3926194 1.4502047
4.9149561 2.3596077 1.4698504
3.8816996 2.5770416 1.448736
2.6697304 2.7939744 1.4104748
3.070081 2.7406888 1.4436953
1.888001 2.9802194 1.4198985
2.1153617 2.9226251 1.4238489
2.2949626 2.9031215 1.4308364
0.94198966 3.1801014 1.4083695
1.0599592 3.1645808 1.4142115
1.3658729 3.1002853 1.4142166
0.52890038 3.2725649 1.4164369
-0.11569142 3.3967772 1.4027265
0.093557417 3.3508973 1.410152
0.27646357 3.3100581 1.4091079
-0.71813434 3.5277987 1.4081297
-3.0951631 4.1120119 1.4739895
-6.312995 4.8329906 1.4892448
7.7661209 1.7649715 1.5161362
6.6186924 2.0555856 1.5395992
-3.6877198 4.3076677 1.5393436
-5.2924018 4.6535606 1.528576
6.5228586 2.1891387 1.6947845
6.1165385 2.2887297 1.6857266
5.5588684 2.3851085 1.6519446
-4.08599 4.4863458 1.6470833
-6.7446375 5.0377479 1.6103407
9.020896 1.6877462 1.7225161
-1.7569311 4.0173168 1.7036054
