# .PCD v0.7 - Point Cloud Data file format
VERSION 0.7
FIELDS x y z
SIZE 4 4 4
TYPE F F F
COUNT 1 1 1
WIDTH 211
HEIGHT 1
VIEWPOINT 0 0 0 1 0 0 0
POINTS 211
DATA ascii
-12.465767 21.355661 -0.27485788
6.8290462 15.297422 0.14895254
-4.8480978 9.3784924 0.78532523
3.9006042 7.5054541 0.8897385
1.5938263 7.6869221 0.89753509
4.0603018 7.6001801 0.88909173
1.8084807 7.7376523 0.88759702
2.9803376 7.7156811 0.88965511
3.0658612 7.7750387 0.88375312
-0.23465817 7.8541527 0.89705926
1.0640709 7.8785958 0.88041854
2.9377143 7.852529 0.87828439
-0.30844808 8.1243219 0.87463379
-0.075662613 8.1067247 0.86950582
-3.5562534 8.23559 0.88259321
-0.27245486 8.4752712 0.84105587
-0.1014711 8.4770479 0.83553028
-5.5011845 8.964716 0.83020395
-6.0013862 9.0474548 0.82657176
-6.5702143 9.2866001 0.80812871
-6.2387624 9.2575512 0.8114956
9.8948288 6.3571205 0.9583863
9.0363989 6.5646858 0.94489765
1.6603726 6.6723261 0.9882803
2.7049646 6.6500225 0.97844762
3.1713812 6.6317406 0.98971772
6.5986543 6.6897621 0.94825751
8.6313858 6.6478605 0.93915683
8.2952843 6.7095056 0.94171166
4.0037408 6.873138 0.95412719
-2.540206 6.977654 0.99884677
2.6853366 6.9309845 0.95882314
2.9041872 6.9275837 0.96190023
7.1323595 6.9127121 0.93473917
7.4379215 6.9250669 0.92889017
-2.9159636 7.0891485 0.99233109
0.10787272 7.0834241 0.96294993
-5.3911371 7.206584 0.99000746
-5.0500345 7.2747378 0.9903903
2.9115336 7.2868338 0.92851043
0.44547355 7.3210516 0.94652402
2.3036177 7.3755836 0.91845262
4.1118345 7.3365955 0.90757078
1.8432171 7.4696789 0.91209579
2.208873 7.4515171 0.91240782
2.5256941 7.4774957 0.90924311
3.4141798 7.400465 0.91251165
-0.39797735 7.6807628 0.90896875
-5.7721586 7.9403725 0.93459654
-5.6521673 8.0870476 0.91933709
9.7367334 4.8234968 1.0988061
9.0913496 4.9055967 1.0957966
9.5729465 5.069694 1.083606
7.1308341 5.1529803 1.0940801
7.6501508 5.1447248 1.0976782
8.1242056 5.1274672 1.0929312
5.0864987 5.3369126 1.0830102
8.5210648 5.3704519 1.0688992
9.9163818 5.3228855 1.0615715
5.0680838 5.4406462 1.0757124
5.2720885 5.4839129 1.0720413
6.8271847 5.4024754 1.0688941
5.4921551 5.5532894 1.0654788
6.1729789 5.5224748 1.0626686
9.4049969 5.5079513 1.0473382
1.6069006 5.616838 1.0870886
4.2226067 5.6680207 1.0614655
4.5377388 5.6822715 1.060919
5.3368692 5.6725054 1.0537647
5.4966555 5.6404219 1.0530875
6.5002527 5.7646933 1.0469791
-1.7560823 5.8971348 1.08555
9.0412617 5.8542862 1.0174404
3.8768997 5.9476194 1.0417044
-1.979622 6.0755196 1.073334
5.2134991 6.0543995 1.0294366
-4.965992 6.1340909 1.0883453
5.9515929 6.1700397 1.0068457
-3.3558493 6.2429342 1.0673202
2.2484555 6.2921181 1.017663
3.0829377 6.2178559 1.0174201
3.3855805 6.2935772 1.0178263
4.6524076 6.2912383 1.0013015
-2.6945312 6.3209233 1.0579672
-7.2111578 6.6561275 1.0541844
-2.9587646 6.6822319 1.0201716
-1.225888 6.726943 1.011328
-1.1751397 6.7050915 1.0148876
-7.3444343 6.9220538 1.0324728
-4.2141743 6.9558735 1.0064971
-3.7327011 6.9395876 1.0095444
-5.1045704 7.0817151 1.0007539
-3.4554436 7.0065289 1.005371
9.6284027 3.9096537 1.1810105
5.43784 4.2999606 1.1829197
6.1534309 4.247117 1.1820812
3.6897697 4.3455687 1.1908631
4.2432671 4.3247695 1.1907187
5.146152 4.3092232 1.1786761
9.4509544 4.4243946 1.1450813
5.1968055 4.6394529 1.1548945
7.6906891 4.7569256 1.1172564
9.2969913 4.7672176 1.11762
9.224452 4.8602133 1.1084681
3.1179061 4.9506807 1.1443341
8.2461014 4.9016056 1.1111078
-0.67057014 5.0711365 1.1660848
7.3659043 5.0950446 1.101226
3.0662661 5.1190276 1.125838
-3.0497599 5.5225849 1.1323978
-7.2939157 5.8640995 1.1389078
-4.907177 5.8671212 1.1165071
8.3294878 2.9494243 1.2895815
8.4778261 2.9456904 1.2905071
6.8708634 3.0317466 1.2918432
7.0667734 3.0607753 1.2876788
7.8676338 3.0467782 1.286037
9.4166775 3.0656013 1.2755297
8.1057863 3.1256509 1.2696353
7.286212 3.2803543 1.2616951
8.2619858 3.2395637 1.2557865
3.0223935 3.3672698 1.2879505
5.0350685 3.3604565 1.2772489
5.351347 3.3629017 1.2774429
6.9654737 3.3758993 1.2656499
8.5271969 3.3111639 1.2492009
8.3083906 3.4049096 1.2419322
-1.0326056 3.5623016 1.2997434
4.6751275 3.5225401 1.2565076
7.721509 3.5012918 1.2511874
8.5130596 3.5110924 1.23361
8.8816967 3.5734086 1.2293166
9.1365404 3.5139651 1.2325261
-1.650929 3.6786306 1.2912027
-1.0867271 3.6303577 1.2926772
6.4987221 3.6735432 1.2422874
7.0823989 3.6711385 1.239498
8.8857918 3.692194 1.2242925
5.3600636 3.8356695 1.2276686
6.0969563 3.8436813 1.2169049
7.2762828 3.8461721 1.2164524
7.7113581 3.8601317 1.2144332
8.5911827 3.8163462 1.2122724
-3.0882292 3.95438 1.2745186
3.5028749 3.9566467 1.2296295
4.0309992 3.9332299 1.237615
5.7584004 3.9648111 1.2119197
3.7111332 4.0785618 1.223511
4.0439076 4.0808992 1.2162933
4.6909771 4.0522876 1.2081115
5.0220885 4.052762 1.2066064
5.4248157 4.0184627 1.2066727
5.9023662 4.0801477 1.2046416
3.8632846 4.118031 1.2217461
5.3414564 4.1002541 1.2039644
1.736581 4.2123828 1.2282046
2.1832724 4.2407765 1.2113132
2.7639527 4.2008901 1.2163919
-5.067853 4.362195 1.264635
-4.7344837 4.3179121 1.2646792
2.3720546 4.304924 1.2049128
3.577575 4.3246317 1.2018292
-5.3137827 4.4537373 1.2553017
-1.173683 4.4458532 1.2163965
-0.19079068 4.4979296 1.2121174
0.9760946 4.4809675 1.2016649
1.2965376 4.4287744 1.2010338
-0.97194362 4.535903 1.2056483
0.58083302 4.5153418 1.2049837
-6.3107872 4.7104549 1.2401456
-7.1942344 5.0742941 1.2104826
-6.7041931 5.0181789 1.2121022
5.1102157 2.3046787 1.3709198
8.2342567 2.4744573 1.3297459
8.5378046 2.4232261 1.3368528
8.9119358 2.5428998 1.3239715
8.5081463 2.6722102 1.3187249
8.3512697 2.7327142 1.3052208
8.8913002 2.7143004 1.3151904
7.4649248 2.8508663 1.3036423
8.1052799 2.8778396 1.304143
1.4898194 3.0985892 1.320321
0.28942546 3.2857814 1.3169272
0.52816963 3.2235537 1.3182626
-0.12501436 3.3728242 1.3222246
-0.16356772 3.4427481 1.3088536
-8.0256119 3.7085431 1.3395066
8.9583321 1.0692081 1.4539537
-4.4729128 2.2976096 1.4473207
8.8489666 0.34773028 1.5329094
2.0186646 0.86915064 1.5328671
8.4782887 -1.4695663 1.6988927
8.531805 -1.3277 1.690237
8.5678196 -1.0738164 1.6681092
-7.7031565 -0.10292946 1.6898479
-8.3388891 0.10958548 1.674111
8.4139977 -2.0804036 1.7603886
2.1061234 -1.9977634 1.7926048
-5.01261 -1.0420761 1.7626691
-7.5917053 -0.51834399 1.7388126
-5.0544181 -0.52025616 1.7181617
-5.3662138 -0.46474952 1.7197835
-5.8923473 -0.37588578 1.7156014
7.8832483 -3.3254199 1.8724704
8.1126137 -3.1378691 1.8607128
4.6847148 -2.6828091 1.837688
2.9408216 -2.2465167 1.8205078
2.1241345 -2.1035528 1.8110577
7.9583201 -3.6728334 1.9074388
6.9182625 -8.244688 2.3504751
1.8626502 -7.254735 2.3028932
