# .PCD v0.7 - Point Cloud Data file format
VERSION 0.7
FIELDS x y z
SIZE 4 4 4
TYPE F F F
COUNT 1 1 1
WIDTH 64
HEIGHT 1
VIEWPOINT 0 0 0 1 0 0 0
POINTS 64
DATA ascii
-6.2365918 -6.136405 -2.5723329
-5.6911826 -4.8975844 -2.0826678
-1.6797476 -4.3502159 -1.5354781
-3.2764359 -2.5350683 -1.0250446
-6.8081465 -1.0143168 -0.76371127
-1.1581618 -1.9408786 -0.62141675
-2.793848 -1.6706483 -0.65783709
4.4886026 -2.9803791 -0.50567907
0.43119621 -2.090076 -0.54753548
-1.2720853 -1.8240732 -0.58676058
2.8311021 -2.0841446 -0.32724071
-1.8186148 -0.90020919 -0.3047305
-2.4586678 -0.83653569 -0.32261294
-7.3018675 0.28813541 -0.33143291
1.4703432 -1.4751009 -0.2262377
5.0745354 -2.1358266 -0.15018359
1.0049465 -0.98927277 -0.10199802
6.7583914 -2.3704693 -0.095260128
0.92774427 -0.9745878 -0.098576084
-8.457099 1.3564587 -0.045314677
-8.3760662 1.322417 -0.05897354
-3.726017 0.46278799 0.039037742
-8.1054516 3.1348686 0.63091111
-8.1477146 3.2960048 0.67394245
8.5429974 -0.53017527 0.717224
8.2985344 -0.31217954 0.76984066
-4.6070137 2.7508874 0.78076035
8.3208389 -0.026717898 0.88224334
8.3287716 0.50830173 1.0690883
8.4094162 0.70241481 1.1591039
8.5356207 0.9501065 1.2484858
-5.6701756 4.3539286 1.2811409
-6.9818115 4.5311694 1.2188873
-7.1223917 4.7010989 1.274483
-4.4474669 4.1939936 1.3291605
-4.0548754 4.1544189 1.3295524
-5.4125571 4.3622274 1.3058474
-7.7534437 5.0343337 1.3320858
7.0564337 1.9450345 1.4858525
4.5684419 2.3858533 1.4372194
5.0783224 2.3582377 1.4682457
4.2997427 2.4860346 1.4397613
4.162941 2.5365529 1.4495778
3.4391942 2.6767502 1.4367239
2.4478455 2.8915405 1.4257257
2.8656502 2.872313 1.4668956
1.6919193 2.9820395 1.4112836
1.4632523 3.0812426 1.4120963
1.7647028 3.0352285 1.4277998
1.4601939 3.2795329 1.4929627
0.6551801 3.3079236 1.4380913
-0.47308636 3.4636903 1.4036711
0.29181111 3.4985981 1.4755888
0.47280094 3.4718294 1.4739323
0.65321541 3.421942 1.4844381
-0.31574494 3.571815 1.4363904
-1.0960259 3.6926115 1.4313042
-1.53973 3.8312662 1.4294038
9.0452785 1.6647832 1.5562232
7.7138672 1.8475978 1.505685
8.3182487 1.8153682 1.5458492
8.4482079 1.8155233 1.5638169
5.731802 2.3055377 1.5016806
1.7403662 3.2266433 1.5002759
