# .PCD v0.7 - Point Cloud Data file format
VERSION 0.7
FIELDS x y z
SIZE 4 4 4
TYPE F F F
COUNT 1 1 1
WIDTH 79
HEIGHT 1
VIEWPOINT 0 0 0 1 0 0 0
POINTS 79
DATA ascii
0.2485218 10.796463 -1.2380414
-1.4653026 11.152115 -1.2554463
-6.6233306 8.858119 -1.0033052
-1.3543544 7.476059 -0.9176423
-2.0726392 7.5739269 -0.91498673
-3.5235739 7.7706041 -0.93041039
-6.6357431 8.0689793 -0.926835
-0.87820047 8.0460262 -0.97694802
-6.3245769 8.6766472 -0.98126793
5.7858987 6.079422 -0.82459241
10.062373 6.0836887 -0.86983168
4.0593963 6.9590225 -0.89749324
-0.6979664 7.2790365 -0.89570111
9.4661922 5.1115847 -0.77769804
9.9006205 5.1240382 -0.78457844
-3.0327129 5.3443441 -0.70438242
9.5364647 5.3032107 -0.78755784
5.6771722 3.5393493 -0.60245895
9.5773869 3.7249238 -0.64694059
9.6376476 3.7165132 -0.64396989
9.6777592 3.8632593 -0.66030419
-3.9598796 4.4889441 -0.60645109
5.2921009 4.4404011 -0.67681623
-4.248455 4.5732889 -0.62273329
-4.1157913 4.5707579 -0.61814684
-3.7626777 4.5653849 -0.63218439
5.1692309 4.537096 -0.69147921
-3.7628794 4.6202397 -0.62699997
-7.1623435 5.4752007 -0.67921746
8.8945866 2.3728616 -0.51934218
-5.4989405 3.502465 -0.52022225
-5.1466842 3.535336 -0.50951195
-4.610383 3.8589799 -0.5500561
5.1326728 1.6476345 -0.41809198
4.9421897 1.7502962 -0.4240467
-0.20973969 2.3659546 -0.44305354
0.53901482 2.3213584 -0.45641482
0.24904555 2.4332318 -0.45497236
0.46464249 2.4206476 -0.45081201
3.2874689 0.77020377 -0.31643048
4.8234539 1.2891326 -0.37819725
1.611589 1.3497876 -0.3715952
4.5793214 1.315105 -0.38887945
-3.3696251 1.5325137 -0.34912384
-0.69518125 1.7937806 -0.38610977
7.2251086 -0.28010628 -0.26465997
7.5349946 -0.087757476 -0.28251809
7.6408801 -0.060995683 -0.28189316
7.6440277 0.1596697 -0.29159158
0.27949017 0.36910057 -0.27016163
0.31456524 0.47177452 -0.27287054
0.42907822 0.48987535 -0.26997039
-8.5220451 1.097976 -0.26160517
1.43441 -1.4779985 -0.11060328
0.69811511 -1.2864752 -0.12033515
-1.314575 -1.0533669 -0.13035175
-1.7341228 -0.76674634 -0.13881962
-5.4659543 -0.62253046 -0.12548992
-4.1860247 -0.68689382 -0.1317078
-3.1794739 -0.64664745 -0.14825897
-3.1985986 -0.59526372 -0.15940835
-3.6187339 -0.36348996 -0.1707311
-6.6979027 -0.047532815 -0.16603796
-6.9143987 0.083530344 -0.18658717
-6.7025681 0.0096970797 -0.19027211
3.4334629 -2.6231818 -0.015405595
3.8179932 -2.3297627 -0.045478851
1.7599247 -2.2421083 -0.036476701
2.6931198 -2.027061 -0.059838083
3.2577531 -2.0386422 -0.066683628
2.5495448 -1.9490783 -0.065299928
2.7171624 -1.8843832 -0.079157487
0.83952165 -1.7951467 -0.06195366
-0.25087786 -1.5673921 -0.080679774
-1.3665953 -1.4044466 -0.090473428
-0.29622158 -1.3087687 -0.099122323
6.4318962 -6.1806388 0.29523063
6.2141318 -6.9018655 0.36053517
7.0632672 -6.5834775 0.33204928
