# .PCD v0.7 - Point Cloud Data file format
VERSION 0.7
FIELDS x y z
SIZE 4 4 4
TYPE F F F
COUNT 1 1 1
WIDTH 69
HEIGHT 1
VIEWPOINT 0 0 0 1 0 0 0
POINTS 69
DATA ascii
1.0235109 7.5429416 -1.6021678
0.97783613 7.3721895 -1.5683966
1.3717415 7.3379211 -1.5881743
4.2466574 6.3406887 -1.4665489
3.9501109 6.4163265 -1.4842257
4.4305148 6.4177895 -1.4916945
-6.7201085 7.7487545 -1.4323624
5.322463 5.3824453 -1.3384881
-0.081675768 6.3525271 -1.363259
8.9096527 3.6759276 -1.115117
-0.024219751 5.3693686 -1.1903015
-3.1264219 4.8679342 -1.0212214
5.2530856 3.370641 -0.95724016
-7.7524166 4.634398 -0.85257888
-7.3778629 4.7589006 -0.88044
-4.318943 3.4366217 -0.72157478
-6.3156471 3.7522483 -0.71393603
-6.6672697 3.8213441 -0.73181951
1.8132396 1.8633047 -0.60630345
1.2266514 2.1340322 -0.62156379
1.0913134 2.2279427 -0.64161062
0.57460862 2.3048182 -0.64350706
-0.11940493 2.5185301 -0.66389066
-3.6321559 2.7875648 -0.62826681
-3.4403882 2.8694587 -0.64930451
-3.6501813 2.9314227 -0.63769126
-2.3592324 2.9577625 -0.6891551
-6.1121807 3.2390265 -0.63915873
-6.259346 3.5010281 -0.68773156
-8.0046997 3.6118236 -0.65228778
-0.63010806 1.7857244 -0.50758147
-3.3373113 2.3562889 -0.55056995
7.1857457 0.36260936 -0.47308505
4.7252402 0.72287536 -0.47397906
-3.275372 1.6825879 -0.42203975
8.3200397 -0.71000767 -0.30294257
0.94072592 0.35779893 -0.30315265
1.4219928 0.50001144 -0.33786345
-3.6489997 1.1350758 -0.32171541
-3.2943439 1.1202507 -0.31962019
-2.9933534 1.2134849 -0.35093331
-8.4294271 1.7313025 -0.30416709
-8.3497887 1.8973936 -0.32208791
-3.5091472 0.66436589 -0.22907829
7.1130438 -1.4983926 -0.12536204
-3.8268585 0.29239589 -0.15475096
8.2784195 -1.8717779 -0.083940282
-3.896091 -0.15061694 -0.078540042
-8.2437344 0.38930729 -0.068717934
6.8561277 -2.511379 0.057220981
6.7428417 -2.4481838 0.050971575
5.0157499 -2.2083004 0.06768541
4.4902034 -1.9161679 0.025418784
3.1164956 -1.8491964 0.04739102
3.0980279 -1.7825754 0.028510012
-2.2866876 -1.3333611 0.092325538
-3.7619696 -1.0172249 0.07579425
-2.9912591 -0.86087632 0.031618714
-7.3897266 -0.12204528 0.011026472
8.0681295 -3.4353099 0.19769004
7.767067 -3.3732367 0.19818458
0.73591959 -1.9181743 0.1252175
-0.66614062 -1.6303232 0.10185874
4.7699366 -3.2369752 0.2523421
7.411562 -5.9566555 0.66964513
6.4204373 -8.9486628 1.2450057
6.3383875 -9.3033676 1.3114917
5.982708 -11.681861 1.7621769
1.9361417 -11.195274 1.7740803
