# .PCD v0.7 - Point Cloud Data file format
VERSION 0.7
FIELDS x y z
SIZE 4 4 4
TYPE F F F
COUNT 1 1 1
WIDTH 58
HEIGHT 1
VIEWPOINT 0 0 0 1 0 0 0
POINTS 58
DATA ascii
-3.4712133 -5.0779428 -0.90102148
-6.6898742 -0.52593952 -0.91136384
-7.3320913 0.27481753 -0.92720866
-6.8941503 1.0391012 -0.83418298
-5.8946862 1.3616581 -0.7355485
-7.3457451 2.9333501 -0.7590344
-1.6675971 -1.3217041 -0.53518748
-1.889942 -1.0681401 -0.53660846
-1.8714366 -0.72356808 -0.51884699
-2.1722131 -0.52254605 -0.54224908
-2.9733067 1.0862858 -0.51848078
-3.4835954 1.6502262 -0.51756287
-3.659183 1.7635311 -0.52616596
-4.5903058 3.3565261 -0.5205363
-4.8887286 3.5247445 -0.53216881
-2.9330642 1.4943476 -0.49577713
1.2811652 -1.9717387 -0.3447555
0.25402966 -1.4252517 -0.39763087
0.11055085 -1.2939956 -0.39759782
1.03807 -1.1748981 -0.30835086
-0.020531535 0.44642943 -0.31441411
-1.4710478 2.0900764 -0.33490622
-2.7717152 2.7493434 -0.39311105
-2.5744462 2.7684121 -0.39206684
-2.5905237 2.8188233 -0.37574792
-3.6508327 4.5428619 -0.36601368
-6.5969925 8.3145123 -0.39905038
1.0626886 -0.99744785 -0.29520744
0.93453133 0.65944523 -0.21911567
-0.077453703 1.4350903 -0.25573555
-0.50620055 2.5935228 -0.22726908
-0.66963059 2.6419852 -0.23817126
-1.6323433 2.9353714 -0.29266906
-3.1615779 5.4359426 -0.2714209
3.7309346 -2.1221313 -0.14131063
3.5245795 -1.8760779 -0.15028659
1.3000655 0.57154936 -0.18557452
0.96574986 1.3997934 -0.17703836
-2.7919178 7.0336475 -0.16234721
1.5142782 2.1879683 -0.076320164
7.6857414 -4.6940799 0.034394465
3.0851197 1.8502969 0.028421134
-12.015066 23.863626 0.043933451
8.1374159 -3.3475361 0.15330172
-1.4681728 11.266781 0.19799219
8.3865528 -1.7033319 0.25361192
8.4190331 -1.6976887 0.26034409
8.2934017 -0.86648613 0.31293178
8.7606153 1.7404575 0.49080566
8.8716354 3.2354996 0.58847326
9.0529575 3.2493477 0.59404671
3.3580182 10.319507 0.53597301
2.9624515 10.419571 0.50827765
9.0261784 3.2171779 0.60683447
9.336504 3.3736403 0.62762821
9.7910461 4.834043 0.74856079
8.6281595 6.6269913 0.75332332
7.6999888 6.8546677 0.7041443
