# .PCD v0.7 - Point Cloud Data file format
VERSION 0.7
FIELDS x y z
SIZE 4 4 4
TYPE F F F
COUNT 1 1 1
WIDTH 71
HEIGHT 1
VIEWPOINT 0 0 0 1 0 0 0
POINTS 71
DATA ascii
7.2886739 -3.2392762 0.091497824
6.0648117 -2.9542398 0.080085039
4.7668409 -2.7245131 0.078108326
6.1292481 -2.7150621 0.088472486
3.5654073 -2.6384635 0.067009911
3.4806728 -2.5555902 0.066323094
2.870913 -2.3568592 0.077312157
3.1841035 -2.071408 0.089140743
-0.36692011 -1.9156048 0.044762116
0.64665616 -1.7394322 0.068593189
1.3960176 -1.6280276 0.089828983
1.4611843 -1.665544 0.089741714
1.6065664 -1.5656624 0.088705629
-2.9232953 -1.2326201 0.056992751
-2.7056732 -1.2623296 0.044750728
-1.3210235 -1.0478802 0.087883465
-5.4782248 -0.85579407 0.04305815
-4.8500204 -0.61670858 0.054313466
-4.4837484 -0.67125368 0.069617555
-3.2878826 -0.67667949 0.078657016
-4.8259096 -0.57642424 0.063746244
-4.7839918 -0.5747689 0.063474923
-8.8184938 -0.47419354 0.018136304
-8.6311531 -0.43744865 0.026099531
-8.2326002 -0.43575424 0.025273709
-4.0114193 -0.31069702 0.083033785
-8.4968681 -0.2490778 0.021584548
-8.653203 0.88817507 0.090083405
8.2987633 -2.5278378 0.14074618
3.4695117 -2.0702374 0.10517793
1.4466536 -1.4929297 0.10302916
0.36443785 -0.96512794 0.12484926
-3.4782252 0.69748235 0.16519105
-8.4931374 0.92298138 0.10745229
-8.4283619 1.8290071 0.15290053
8.4751234 -0.72922814 0.252166
8.8183146 -0.25979024 0.28477687
7.5725031 0.057091322 0.28116816
4.0537601 1.356056 0.29541415
3.5144937 1.4795333 0.29699528
2.6921883 1.58237 0.2950896
-8.0782576 3.3455863 0.25172836
-7.3196054 3.5648217 0.2638329
-6.6746016 3.5293303 0.27287757
-7.1156044 3.6839015 0.28417856
-7.257946 3.863884 0.28162372
8.4846907 0.42316663 0.30523401
3.7518129 1.4442677 0.31471407
2.7477207 2.0190432 0.32114539
1.6106248 2.1900799 0.31333405
1.4698594 2.5184567 0.33890164
-1.098473 2.8183165 0.32431176
-7.1721797 5.503768 0.38592947
-7.6386709 5.6685905 0.39616644
8.9357166 2.7021294 0.46363807
9.4223585 3.1127946 0.48157048
-3.4065835 5.0046921 0.40635625
-7.3264837 6.4576182 0.44221264
-7.1475649 7.5115108 0.49778035
8.8480835 3.7743049 0.5089646
1.7077885 6.0429106 0.54706997
-1.8547868 6.2906075 0.51476979
-1.9532095 6.5936699 0.51761299
-1.7181379 7.4504299 0.57080805
-3.0667484 8.0052176 0.58710408
8.337368 6.0502462 0.64166617
6.1571703 6.2270155 0.61386228
9.5387592 6.358778 0.68508756
9.9463139 6.3432121 0.68651837
8.1128807 6.7233906 0.67125458
-6.6595764 9.2018385 0.60416347
