# .PCD v0.7 - Point Cloud Data file format
VERSION 0.7
FIELDS x y z
SIZE 4 4 4
TYPE F F F
COUNT 1 1 1
WIDTH 65
HEIGHT 1
VIEWPOINT 0 0 0 1 0 0 0
POINTS 65
DATA ascii
-6.3457518 9.6715231 0.67373812
-6.9155474 9.0075531 0.71927357
-6.2519898 9.1092587 0.72290826
-7.3492651 6.9232392 0.8954277
-1.7683978 7.4303503 0.86650413
-6.3061271 6.0871968 0.9496119
-1.9150486 6.2386961 0.97061861
-7.4920263 6.3302031 0.93152487
2.6131921 6.3194389 0.98592019
7.2213078 6.3301458 0.99729908
7.5190616 6.489924 0.98717237
7.0126362 6.5689154 0.98264384
7.11415 6.6803856 0.97256565
7.8990431 6.7809877 0.96489692
6.3893957 6.8313298 0.95738
-6.097548 4.5656862 1.085198
-5.9283342 4.5471325 1.0926878
-4.2141333 4.5144253 1.0995617
-3.8721371 4.525455 1.0912294
-2.6548436 4.6538496 1.0996038
3.3711224 5.3092599 1.0745951
7.8676162 5.395741 1.0762929
7.632268 5.4850736 1.0728643
7.3422747 5.555531 1.0651493
6.7720914 5.8698597 1.0377128
7.4469895 5.8262434 1.0485303
7.716187 5.8711653 1.0401727
7.8350124 6.1973968 1.0109589
8.1018066 6.4156961 1.0049826
-3.210402 3.7548127 1.1616867
-2.2151361 3.7781501 1.1647708
-2.5002084 3.8553429 1.147705
-4.4198618 3.9686697 1.129874
-2.8867836 3.955662 1.1455226
-2.7499237 3.9388182 1.1450229
-3.9232259 4.1582918 1.1246834
-3.6644602 4.1158409 1.1307611
-5.4751301 4.3482189 1.1021265
4.8995051 4.752408 1.1142502
2.8630271 3.3108242 1.2263114
3.2643816 3.3673189 1.2245407
8.6507187 3.4549248 1.2529349
-8.5438595 1.050499 1.3448696
-8.4859314 1.3063738 1.3365593
7.3821096 1.7599512 1.3729444
7.7213712 1.7554588 1.3736643
7.8814173 1.72474 1.3709838
6.8771868 1.8739331 1.3528855
6.5581856 1.9868245 1.3583106
6.6589851 1.9877741 1.3510035
7.1443729 1.9060456 1.352421
7.2556419 1.9339144 1.3533568
6.5557718 2.0579741 1.3437812
6.6472883 2.1263638 1.3435335
6.0654469 2.2728519 1.3304629
6.9669766 2.2873349 1.3305649
5.3334613 2.4842384 1.3148286
5.2478018 0.10983033 1.5035657
6.3752995 -3.2452998 1.7622488
6.3430319 -3.022769 1.7455486
4.7739649 -2.835572 1.7319921
4.748713 -2.6730254 1.7167337
4.8440189 -2.5772967 1.7121856
1.1302402 -8.1053762 2.1299052
0.68134719 -10.182053 2.2923198
