# .PCD v0.7 - Point Cloud Data file format
VERSION 0.7
FIELDS x y z
SIZE 4 4 4
TYPE F F F
COUNT 1 1 1
WIDTH 65
HEIGHT 1
VIEWPOINT 0 0 0 1 0 0 0
POINTS 65
DATA ascii
-2.4801004 5.2749972 -1.7612485
-2.3088479 5.4705687 -1.7811624
-5.0860405 3.1429119 -1.6153221
2.7155199 7.3427114 -1.5506856
-8.0523043 0.39343143 -1.3844093
-6.2307262 1.120304 -1.3041525
-6.109653 1.4678917 -1.3746388
-7.3273888 0.030534029 -1.2036395
-2.5599751 2.7965307 -1.2108244
-2.4683805 3.0324514 -1.2582207
-2.4466646 2.6709986 -1.1696808
4.1445217 6.3197093 -1.1334829
3.9826927 6.4279423 -1.1782886
-1.4527287 2.5576177 -1.0174757
4.6628246 6.3862276 -1.0912418
-3.282625 1.0268581 -0.90138555
-3.0088425 1.4406807 -0.97267979
-2.9644153 1.4877449 -0.96600902
5.0721149 6.2083926 -0.99344116
-4.5467072 0.028033771 -0.85734773
-4.0606432 0.31349072 -0.84895396
-3.8470387 0.52480221 -0.86386067
-3.5068381 0.61482102 -0.84879881
10.600727 8.6040411 -0.82513225
0.068198532 2.2255931 -0.73807812
-2.6684182 0.11938555 -0.63160312
0.22704089 1.8470891 -0.6510694
0.91764641 2.1562152 -0.6176554
0.68914485 2.2980232 -0.67840731
5.743989 4.95156 -0.63689291
8.4877281 6.5248885 -0.6232453
-3.6837988 -1.0078514 -0.50784856
-3.2987804 -0.64724958 -0.54185748
0.6407727 1.5078167 -0.50707936
1.6517208 2.2537909 -0.55320835
0.65495044 1.3495395 -0.47456244
-1.7267835 -0.83917427 -0.30150956
10.093466 6.1007338 -0.32521671
-2.515321 -1.2512456 -0.29801938
2.5371943 1.5436182 -0.2853834
5.724359 3.1710396 -0.23981741
5.3251801 3.2067389 -0.28820533
-1.3215117 -1.3598464 -0.12357214
-0.91428208 -1.0486503 -0.14882974
-0.94794893 -0.95201266 -0.16738176
1.1654272 0.38906121 -0.18888955
1.2559235 0.34923363 -0.16808495
1.145862 -1.2388339 0.161377
5.7634096 1.5752429 0.12567012
0.93529975 -1.8300672 0.26660985
2.9629269 -2.410912 0.65507525
4.1358919 -2.5478497 0.83784968
8.7570381 -0.15428349 0.88872892
8.1496258 -0.69396627 0.94066083
8.621151 -1.0793606 1.0812575
8.3884239 -1.9067317 1.240924
7.7065902 -3.1232753 1.4214625
2.3105068 -9.2505264 2.0868478
4.8910704 -7.5812635 2.0587018
3.3006947 -8.8454905 2.1189108
5.4406476 -7.8339634 2.1773295
7.392724 -6.6920781 2.1654406
2.903517 -9.5326452 2.2294617
5.7688632 -7.8551416 2.2270985
7.0567255 -8.1659889 2.4664774
