# .PCD v0.7 - Point Cloud Data file format
VERSION 0.7
FIELDS x y z
SIZE 4 4 4
TYPE F F F
COUNT 1 1 1
WIDTH 184
HEIGHT 1
VIEWPOINT 0 0 0 1 0 0 0
POINTS 184
DATA ascii
2.5696416 6.5403042 -1.9084001
3.9320121 6.5723338 -1.900674
-2.3570836 7.0700555 -1.9356703
4.1444178 5.2885108 -1.8013287
3.8561344 5.3700924 -1.8161864
4.644681 5.3856335 -1.8027258
4.9060259 5.3914971 -1.8072729
-2.3106363 5.4377947 -1.8046522
-5.5114861 5.5437746 -1.8195099
-2.9521027 5.5819602 -1.8196161
-2.591537 5.5910249 -1.8230641
-2.7147877 5.749939 -1.8260018
4.1797242 5.7693939 -1.8313675
4.8988156 5.7731409 -1.8493443
2.0678997 5.831048 -1.8495948
4.1026554 5.8606791 -1.8490207
4.6597371 5.8959222 -1.8501968
1.8438509 5.9147606 -1.8590828
2.7131503 5.9108944 -1.847051
2.5435596 6.1112108 -1.8662579
-2.0700383 6.2439876 -1.8651725
2.9440598 6.2564707 -1.8861103
3.4702199 6.2604866 -1.88238
-1.8850061 4.1030822 -1.706957
4.2262235 4.1628828 -1.7241867
4.548245 4.1828456 -1.7246785
-2.2906899 4.2763038 -1.7159078
-3.1114264 4.3158174 -1.7152314
-2.0352945 4.4429455 -1.7357757
4.636241 4.5598269 -1.7431029
-2.2380819 4.6643162 -1.7537726
-1.9359908 4.6625357 -1.7498361
-1.5640943 4.7149754 -1.7526166
-2.0977905 4.9539423 -1.7759168
-2.9510467 5.1356964 -1.779557
4.0868168 5.2977395 -1.7998949
-6.051713 2.7767062 -1.6006651
-4.1041861 2.7712049 -1.6062851
-4.2936807 2.8726282 -1.6037951
-3.2327251 2.894187 -1.6126869
-4.4814024 2.964843 -1.6059101
-4.1631389 2.9221623 -1.6058915
-4.5894957 3.0917294 -1.6153799
4.5320854 3.0959344 -1.6260684
-3.0073669 3.1113391 -1.6201409
-2.4155445 3.1982563 -1.629802
-5.3104439 3.2176337 -1.628534
-3.1406984 3.2895284 -1.6311154
3.8288693 3.2900722 -1.6375564
-5.108325 3.3321681 -1.6518204
4.6199303 3.3392987 -1.6505885
5.2804408 3.3074694 -1.6525044
4.8639441 3.4960041 -1.6557713
1.4174166 3.5784855 -1.6746337
1.465873 3.6884542 -1.6662045
6.7869091 3.6259661 -1.6678145
-2.3860888 3.7162218 -1.667738
1.3449514 3.7653461 -1.6856747
4.4901567 3.8800993 -1.697991
1.5968232 3.9099188 -1.6936138
4.2711759 3.9468403 -1.6961294
-5.0315151 1.707814 -1.5139271
-3.7194779 1.7201331 -1.5088496
-3.2778547 1.8467636 -1.5223975
-2.0914981 1.8790588 -1.53468
-5.2670202 1.9070449 -1.5283787
-4.9506907 1.9150709 -1.5413049
-4.437088 1.9008427 -1.5348804
-3.7490263 1.9144597 -1.5258555
-4.8555069 2.0920377 -1.547996
-4.4703026 2.0952902 -1.5535876
-0.26107717 2.1142726 -1.5562093
-3.7394757 2.2826195 -1.5548251
-2.6315236 2.228508 -1.5531188
-2.1940031 2.2193213 -1.5636131
4.9407988 2.2211313 -1.5709757
-4.4911513 2.3020008 -1.5540042
-4.7981062 2.4759653 -1.5711257
-4.933949 2.6764152 -1.5839537
0.37660694 1.1904614 -1.4709668
2.4600952 1.1905628 -1.4764875
-0.20523989 1.2189864 -1.4706385
2.4509366 1.2314014 -1.486685
-3.410877 1.300754 -1.4752963
4.5586472 -1.1214018 -1.3005549
5.7135262 -1.1633308 -1.3008989
3.9124446 -1.0567459 -1.3117425
4.1341934 -1.0585978 -1.311215
5.079073 -1.0682318 -1.302819
5.8733816 -1.0904477 -1.3084953
7.4600801 -1.0773286 -1.3137236
3.324075 -0.98996252 -1.3137344
3.9336562 -0.9468236 -1.3032671
4.0644188 -0.91433239 -1.3169706
4.7023439 -0.93097007 -1.3217714
5.1280651 -0.95453054 -1.309423
5.3663888 -0.94924212 -1.3119928
6.4879379 -0.91257656 -1.3197412
7.2303319 -0.96951389 -1.30946
7.9084697 -0.99339122 -1.3034638
-0.59441876 -0.83688176 -1.320562
4.5360866 -0.87964886 -1.3252007
5.4724388 -0.86594498 -1.3237367
4.4769068 -0.71090454 -1.3387761
5.5797834 -0.73301727 -1.3385673
8.1396961 -0.71094006 -1.32972
-4.8146243 -0.65256512 -1.3385644
-4.7181053 -0.62614226 -1.3226182
-1.2934325 -0.68181407 -1.3203601
3.5776091 -0.64066833 -1.3372116
3.9056034 -0.68722284 -1.3321433
4.713829 -0.63617122 -1.3354068
4.9290609 -0.60980368 -1.3431506
5.0459614 -0.69778609 -1.3381064
-5.4547396 -0.50106227 -1.340894
-4.9876661 -0.52808452 -1.3437781
3.1570096 -0.55856174 -1.3478601
3.2119207 -0.554811 -1.3418643
3.5662377 -0.50577271 -1.3496516
4.0855522 -0.57855499 -1.3419881
4.2776332 -0.51928705 -1.3512392
5.1148758 -0.54410249 -1.3491906
5.4826641 -0.52907658 -1.3459541
3.9059377 -0.44656476 -1.3531407
4.8593979 -0.42161283 -1.3627026
3.0782585 -0.30065784 -1.3581662
3.498765 -0.29355299 -1.3580883
3.8579061 -0.28754044 -1.3646114
2.9551766 -0.19896059 -1.3786565
3.4843335 -0.1902743 -1.3791683
7.357667 -2.328341 -1.2109997
8.1115246 -2.3127193 -1.2132123
-9.0516663 -2.2455678 -1.2036241
-0.31940269 -2.2520854 -1.2035931
5.0121932 -2.1542571 -1.2236756
6.5432773 -2.0996165 -1.2147696
-0.32839584 -1.9490561 -1.2360145
4.8764992 -1.9699996 -1.2255882
7.0934887 -1.9920955 -1.235093
4.0636759 -1.8639178 -1.2451662
6.9089031 -1.8716427 -1.2419558
4.2346177 -1.700084 -1.2496215
4.698092 -1.7960702 -1.2464629
4.8293171 -1.7487624 -1.2506896
6.1742325 -1.7056804 -1.2629586
3.0752726 -1.6279672 -1.2581859
3.6469321 -1.6842035 -1.2551104
5.1182685 -1.62261 -1.2683519
5.2827425 -1.6152197 -1.2507561
5.4327879 -1.6299671 -1.254478
5.8113308 -1.6757227 -1.2606907
6.7577629 -1.6945796 -1.2643394
6.9357262 -1.6673013 -1.251793
3.0747316 -1.5347221 -1.2637992
4.1168656 -1.5648557 -1.2597084
4.6627116 -1.5158169 -1.2742312
4.9119029 -1.5409617 -1.2603436
5.0601559 -1.514863 -1.2666287
5.2646847 -1.5671823 -1.2593544
2.9782059 -1.4670022 -1.2771357
5.4606018 -1.441812 -1.2771078
5.9073596 -1.4821475 -1.2755698
6.2984409 -1.4996039 -1.2770445
3.8943596 -1.3336025 -1.2757633
4.1474314 -1.336427 -1.2824891
4.2802925 -1.3358958 -1.2828896
4.681222 -1.321171 -1.2807714
5.2547693 -1.3104718 -1.2853916
5.8663054 -1.3299022 -1.2919573
3.4476726 -1.2809472 -1.2766688
5.6245656 -1.2519956 -1.298341
6.5054579 -1.2716531 -1.2973032
7.329988 -1.2868176 -1.2877765
7.7985773 -1.2233207 -1.2869684
8.0278568 -1.2207417 -1.2860708
3.7584248 -1.1343092 -1.291719
4.7183428 -1.0602171 -1.2945457
4.8980923 -1.0713441 -1.2994295
-2.8093178 -3.1734684 -1.1371311
0.091052115 -3.1222391 -1.1324404
6.8870764 -2.4222722 -1.1980147
-8.8812571 -3.8373566 -1.0802257
-9.8187866 -3.7126269 -1.0886514
-3.8290782 -5.0633907 -0.98096114
