# .PCD v0.7 - Point Cloud Data file format
VERSION 0.7
FIELDS x y z
SIZE 4 4 4
TYPE F F F
COUNT 1 1 1
WIDTH 200
HEIGHT 1
VIEWPOINT 0 0 0 1 0 0 0
POINTS 200
DATA ascii
4.6004639 10.068027 0.49997467
2.5262592 10.486819 0.46049267
2.0608149 10.588905 0.44633535
0.81088412 10.829065 0.43645924
8.7777891 9.1743603 0.57853305
13.254766 8.2282848 0.66952848
-3.5712514 9.1208897 0.63826346
-3.462461 8.2122326 0.73951107
-7.00524 8.5275698 0.71047509
4.3663692 6.449101 0.8922112
9.7312746 6.4188862 0.88928765
4.0823989 6.564127 0.88255674
6.3439951 6.6021891 0.87283838
6.7266216 6.6020603 0.88066596
-0.076041937 6.7955341 0.87668967
-5.7366571 5.7844133 0.99373835
-0.96777171 5.7652988 0.99916619
-0.60089946 5.7689133 0.98846
-7.6136055 6.0780058 0.97966945
-6.9927816 6.1458864 0.95863658
10.046036 6.1662545 0.90387332
4.7169247 6.3405519 0.90625525
5.0864096 6.3434992 0.90956378
4.8390293 6.419425 0.90387654
-1.4333277 6.567739 0.90962994
0.9219383 4.6748095 1.0939128
2.2743425 4.7562685 1.096328
-3.2909422 4.8591471 1.0919251
-2.1334567 4.8966508 1.0932355
0.25731188 4.8782511 1.083992
-7.4688473 4.9205446 1.0943002
1.3630673 4.9774156 1.0761579
1.565285 4.9158421 1.0784868
-6.2857628 5.0534034 1.0777824
1.0421073 5.0941792 1.0630834
-6.5341744 5.1360755 1.0686874
-4.656878 5.1143856 1.0704343
-6.5500727 5.2754927 1.0555947
-5.2843447 5.2449021 1.0632498
-0.21350935 5.3124561 1.0350697
0.90328288 5.3238058 1.0342844
-7.5968256 5.482131 1.0358467
-0.46416813 5.4790468 1.0219579
-0.12268257 5.4937534 1.0164534
0.13142033 5.6697149 1.0010071
-5.4499302 5.8576298 1.0012465
8.5457907 3.5186715 1.1969595
8.9677773 3.5721493 1.187552
9.1413631 3.5348339 1.1954567
9.5571404 3.5330801 1.1971807
5.3176341 3.6651824 1.194896
8.668849 3.6661215 1.1873503
8.8907318 3.6775763 1.1832703
9.6158447 3.6781847 1.1843467
4.9408774 3.7182844 1.1854277
5.4261012 3.7343645 1.1851062
5.998003 3.7515447 1.1900493
8.5294504 3.7194717 1.1817532
-2.3344212 3.8980875 1.1884727
1.9086664 3.8891129 1.1814605
2.2866964 3.8629775 1.1800599
9.3734446 3.8151538 1.1654127
1.1131518 3.9646645 1.1816134
1.3618846 3.9432578 1.1770812
3.4387503 3.9281211 1.184736
4.5420938 3.9081028 1.1796213
7.4974756 3.9109087 1.1727662
-3.3735693 4.0641665 1.1769373
0.32790288 4.0973625 1.1650311
2.1673322 4.0487342 1.1624155
3.0769823 4.0480413 1.169176
4.6717544 4.0529108 1.1560016
-0.70554751 4.137403 1.1597617
5.2642469 4.1473422 1.153728
-2.5419865 4.2847104 1.1471235
-0.49476445 4.2551961 1.1590407
0.089217559 4.2839918 1.1496603
1.4584291 4.2903676 1.1447759
2.1719351 4.2853851 1.1358485
2.2406008 4.2576227 1.1480678
8.4198265 4.2594399 1.1280537
-4.9128447 4.3407898 1.1573684
1.3345535 4.3306909 1.1439219
9.7048502 4.3580713 1.1171894
-5.4551382 4.4820118 1.1390437
-3.5522442 4.4910555 1.1395664
-1.3285065 4.4306507 1.1445788
-1.0493084 4.448967 1.139044
-0.95265639 4.4955406 1.131537
-2.4557974 4.5946226 1.1235795
0.18850096 4.5005708 1.1252375
2.2738166 4.5087495 1.1222807
4.3463216 4.574851 1.1017518
-6.6794729 4.6521802 1.1276361
-6.1306038 4.6422901 1.1356169
-4.5416303 4.6519403 1.1271172
-4.2788944 4.6621075 1.1246643
-0.34742141 4.6747155 1.1135986
-0.14081715 4.6722031 1.1077759
-7.2545943 4.7654619 1.1281824
-7.1145868 4.7701983 1.1194313
-1.8967502 4.7068286 1.1156175
-1.5103809 4.7083769 1.1060188
-7.8076887 4.8696938 1.1061101
7.5504332 2.6496651 1.2982008
5.7635593 2.7571383 1.2949023
5.8422737 2.7448587 1.2917006
6.5539312 2.7851419 1.2853205
6.7353473 2.7779427 1.2865527
6.9552088 2.7131383 1.2947366
7.8377185 2.7552125 1.2888032
2.5091343 2.8780227 1.2964245
2.6873536 2.8952558 1.2815213
2.8758826 2.8288767 1.2977729
3.5268047 2.8685436 1.29493
3.7145584 2.8515763 1.2936311
4.0760794 2.8733063 1.286247
4.3706913 2.8224592 1.2892288
5.8218079 2.8953245 1.2860196
6.3350348 2.8945518 1.2783504
6.6728096 2.8871474 1.2833319
7.9334335 2.8833601 1.2836022
8.8519478 2.8354888 1.2871157
1.7357492 2.972723 1.2889838
2.1564541 2.9229803 1.2995098
3.8164113 2.9016571 1.2872491
4.5542431 2.9463639 1.2770348
4.7344823 2.9318838 1.282873
4.8245258 2.9906538 1.2773257
5.4622092 2.9068544 1.2893538
7.0916185 2.9365923 1.2770672
2.6464162 3.0864644 1.2754226
4.1675048 3.0072412 1.2830294
5.0683084 3.0877054 1.2716053
5.8360968 3.087857 1.2638443
0.69651735 3.1606576 1.2711545
5.250658 3.126143 1.261227
4.911623 3.2062006 1.2567692
8.7027245 3.2442446 1.226077
8.951746 3.237581 1.2312055
0.5220806 3.538162 1.234012
5.4352255 3.5840311 1.203124
6.0039401 3.5365181 1.2113107
8.4783602 1.8642638 1.3785524
7.5016451 2.0618272 1.3618836
9.1620522 2.0371041 1.3725324
5.5407639 2.1635408 1.353291
7.1309319 2.1152773 1.3590676
7.6914606 2.1131668 1.3619366
7.9356241 2.1043103 1.3608801
8.2267456 2.1340947 1.3558249
6.332346 2.2879672 1.3374619
8.2890739 2.2302256 1.3380995
8.5089836 2.2443666 1.3474772
9.2446194 2.2535617 1.3416803
8.8683157 2.3543124 1.336985
5.4606991 2.4948478 1.3199217
6.3167357 2.4388332 1.3224175
6.6402593 2.4955969 1.3219368
6.9901705 2.4647398 1.3191249
7.1101727 2.4928257 1.3150721
5.9109626 2.5068374 1.3134114
6.4914923 2.5060446 1.3307196
7.7282982 2.5461059 1.3126242
4.2828622 2.6873784 1.3081938
4.7033095 2.674942 1.3004363
4.9204187 2.6343467 1.3085971
6.1214762 2.6702242 1.3044615
3.3257084 2.7428927 1.3120108
4.0928946 2.7443147 1.3093007
-8.3906021 1.5813553 1.4817188
8.6939163 1.5889789 1.4195049
-8.4095812 2.1774714 1.4047704
5.3366184 0.40813172 1.5567873
-8.6281433 0.87070727 1.5507419
-6.5148144 -0.40150207 1.684355
-6.2782249 -0.46803147 1.6959267
-6.3389177 -0.15899342 1.6549578
-6.8276958 0.0044542551 1.6344619
-8.5960913 0.19469839 1.6311313
-2.785497 -1.5586407 1.7964051
0.28409219 -1.5879381 1.7810407
-4.3268929 -1.2347646 1.7693095
-1.0540066 -1.2141659 1.751932
-2.2163186 -1.1085992 1.741353
-6.7664194 -0.96615207 1.7382381
-7.4947934 -0.63703191 1.717689
6.1232171 -2.7124109 1.8884058
4.9021044 -2.6050727 1.8805051
4.518075 -2.5313523 1.8802837
2.3065057 -2.1146688 1.8481598
4.9883213 -2.0220168 1.8319938
0.96704209 -1.8218799 1.8169645
7.699244 -3.3277564 1.9466062
7.6668229 -3.1501608 1.9396427
7.8075037 -3.1863136 1.9390978
6.4134469 -2.7929442 1.9073172
3.3308983 -7.5612984 2.4390609
2.7350764 -7.475841 2.4228451
2.2366238 -7.355619 2.4146991
