# .PCD v0.7 - Point Cloud Data file format
VERSION 0.7
FIELDS x y z
SIZE 4 4 4
TYPE F F F
COUNT 1 1 1
WIDTH 79
HEIGHT 1
VIEWPOINT 0 0 0 1 0 0 0
POINTS 79
DATA ascii
-10.226083 -4.6815948 -2.1928048
-9.3336926 -3.4854069 -2.0427167
-5.8128819 -6.0867019 -1.7929645
-3.3379388 -6.4926014 -1.5489486
-3.7358413 -6.2124615 -1.5666032
-3.897892 -0.46529359 -1.3271477
-4.6486049 0.90232748 -1.3384798
-5.1199985 1.574257 -1.3579829
-5.294816 2.0261207 -1.3483143
-5.7713132 3.8231506 -1.3155571
-6.9511018 6.1306796 -1.3460798
-0.55019891 -5.8395247 -1.2248536
-0.52117956 -5.7653837 -1.2112224
-3.4401774 -0.43085331 -1.2696422
-3.6044877 0.59110326 -1.2382015
-1.6175079 -0.98805022 -1.1172295
-3.5587533 2.8240645 -1.1397557
-0.37214661 -2.7212925 -1.0551862
-0.65188026 -2.579226 -1.0794159
-0.33912435 -1.3255091 -1.0003521
-2.7936957 2.1148415 -1.0822177
-3.1828747 4.4806461 -1.0205057
-3.1516709 4.6234012 -1.0169128
-3.9046268 4.8088107 -1.0796981
2.7823238 -6.8248477 -0.92153794
0.30626255 -1.5195315 -0.93985111
0.620372 -1.4811815 -0.90122908
-1.2798395 2.3115387 -0.92454362
-1.8708951 2.686286 -0.96104604
-2.9941525 5.131269 -0.97906619
2.9884815 -6.8372364 -0.89565992
1.1186845 -2.439784 -0.88933879
1.4821959 -2.4830093 -0.85384166
0.83804512 -1.6643031 -0.89122152
0.84371066 -0.94845623 -0.84350032
-0.33129823 0.78879857 -0.88391811
-2.7826314 6.5231214 -0.88656628
-2.8549826 7.9274979 -0.82846665
0.87554747 1.0522226 -0.75362885
0.96043676 1.4994112 -0.71571535
-0.2196784 2.7873111 -0.79364628
3.1000896 -1.6434693 -0.63477361
2.7285604 -1.1765653 -0.65505761
1.5450826 2.2019365 -0.62579805
-1.2597506 7.4997883 -0.68804741
-1.4681726 7.6875348 -0.69625914
-0.84306628 7.6493788 -0.62327576
4.0504522 -1.7924979 -0.54757112
2.5689504 1.4728814 -0.55472052
3.1275845 1.40063 -0.50781357
-0.15099028 7.5016875 -0.56537557
0.034711123 7.7746119 -0.54144841
5.20788 -2.4413991 -0.46858838
4.8620219 -2.0243683 -0.46758765
5.3072414 -2.0540206 -0.43785024
4.4910703 -0.4335463 -0.45094624
4.2365994 0.74790037 -0.41711482
3.4460816 1.3426887 -0.46871853
5.1268563 0.11386719 -0.34891379
4.5184665 1.0626867 -0.37271345
4.8924046 1.0406373 -0.33950716
7.6396599 -2.3753147 -0.1983559
8.3207817 -2.3305964 -0.12781087
8.2385635 -1.5036654 -0.10435241
7.9856367 -0.92699265 -0.10179873
7.1691322 -0.2199969 -0.14534733
7.1622434 -0.17213953 -0.1588672
7.3777037 0.50145841 -0.10268992
3.8315978 7.0708666 -0.15898494
3.7337725 7.1367731 -0.17813683
7.9810071 -1.0060945 -0.094805121
8.0375099 -1.0057683 -0.095553473
7.9670544 -0.78165281 -0.088492393
8.4829788 -0.55955505 -0.032419443
4.8172178 6.3863821 -0.094242863
5.0972848 6.3405352 -0.066243857
5.3398199 6.3135037 -0.041504551
9.5004463 3.6184325 0.27113351
9.9764233 6.3433857 0.45038605
