# .PCD v0.7 - Point Cloud Data file format
VERSION 0.7
FIELDS x y z
SIZE 4 4 4
TYPE F F F
COUNT 1 1 1
WIDTH 74
HEIGHT 1
VIEWPOINT 0 0 0 1 0 0 0
POINTS 74
DATA ascii
6.2126713 -8.3913803 -1.2844509
2.285162 -6.5499263 -0.92567074
6.0284929 -2.0720572 -0.81057012
7.0089903 -1.8889842 -0.86533058
8.7432442 -0.39811182 -0.8678695
4.3608127 -2.0052447 -0.72687954
3.4594786 -1.7411844 -0.64398813
5.2627888 0.11145991 -0.61199832
5.2876887 0.33363041 -0.61035991
8.1143713 1.7011909 -0.67894942
8.5467777 1.922755 -0.68366504
9.4807224 3.0560017 -0.661897
1.4501967 -1.733035 -0.52713507
4.0248842 0.19025147 -0.54204005
5.7381077 1.6132977 -0.53962553
9.6901484 4.1396856 -0.58594906
2.8162963 0.22095302 -0.47647136
3.8760343 1.187613 -0.45678177
4.0645046 1.1944761 -0.46562731
4.678504 1.8256984 -0.45108938
5.6390867 3.4535382 -0.408099
-0.8650974 -1.4046447 -0.3607747
-0.69408476 -1.409127 -0.37696272
-1.2622795 -0.9152661 -0.3173295
-0.15754837 -0.99653262 -0.37750563
0.25583255 -0.52985406 -0.3663795
1.3748327 1.4638267 -0.30004275
2.115387 1.6949244 -0.32158136
2.8341298 1.8888773 -0.35575432
8.4528408 6.6174541 -0.33511057
-1.8368498 -1.238348 -0.29968271
1.3332077 1.6711991 -0.26999116
6.0472345 6.0754271 -0.23451684
7.5545635 6.7787018 -0.269398
9.9455643 8.7746382 -0.26317376
9.388278 8.9769783 -0.22394595
-3.7932699 -1.0136826 -0.15856315
-3.2999458 -0.57936823 -0.15967312
-3.8747644 -0.22890541 -0.10757969
-0.011152744 1.6566191 -0.19054472
8.3261986 9.2260399 -0.13520674
-5.3005795 -0.6134302 -0.050676756
-4.5298333 -0.64440536 -0.089021355
-3.891326 0.17078499 -0.072464056
-3.7646275 0.28703859 -0.074369907
-3.7143807 0.5278827 -0.05278844
-3.7837694 0.80659997 -0.041176535
4.064868 7.6096654 -0.005544154
-8.231739 -0.14057481 0.16282007
3.8601429 10.176215 0.18879452
-3.473665 4.5698161 0.21914051
-3.8168094 4.6956878 0.23590297
-3.5225105 4.8646102 0.2390638
-3.1912708 5.0463047 0.23122557
-3.2978196 5.2992983 0.26617539
-8.3801479 1.7696589 0.30272603
-6.6114879 3.6761203 0.32815921
-3.3196597 6.6046586 0.34345943
-1.487426 7.6891317 0.31629199
-1.3736868 7.6601295 0.31025398
-1.7073131 7.7486143 0.33047068
-7.3548865 4.8403969 0.46852019
-7.4499569 5.0943213 0.49625504
-7.13448 5.5622616 0.49442258
-3.8422997 7.0457196 0.41450018
-7.2765365 5.5053496 0.50909877
-7.5519342 5.8950725 0.55036151
-7.2620459 5.8899918 0.53052759
-7.4365892 6.3476305 0.57086432
-6.8829842 7.3287296 0.62181854
-6.5296621 8.1673489 0.65579367
-5.483398 9.4972591 0.69474733
-6.3068209 9.3581142 0.72602451
-5.8583245 9.4734917 0.70032024
