# .PCD v0.7 - Point Cloud Data file format
VERSION 0.7
FIELDS x y z
SIZE 4 4 4
TYPE F F F
COUNT 1 1 1
WIDTH 134
HEIGHT 1
VIEWPOINT 0 0 0 1 0 0 0
POINTS 134
DATA ascii
5.4730988 6.1340046 -1.2723458
4.4991894 6.4205937 -1.2677033
-1.381672 7.6193242 -1.2031292
9.2121325 3.1098797 -1.1103764
5.2657604 4.3562722 -1.1022708
-1.34664 6.3431416 -1.105881
0.057983398 6.3977237 -1.1362994
-1.3643253 6.4987946 -1.1006204
-1.3303602 6.9057336 -1.1477599
-1.3210881 7.0752392 -1.1491268
-1.5588099 7.4118147 -1.1808664
6.0900745 3.2723627 -1.0489242
4.8137097 3.451153 -1.0170641
-1.2780455 5.1729774 -1.0094736
-1.1390367 5.1427755 -1.0049191
-1.2787549 5.5664263 -1.0372078
-0.98050761 5.5963063 -1.0482658
-1.4063143 5.6004686 -1.0440598
-1.0937378 5.7238855 -1.0537274
-1.0756793 5.8089328 -1.0512187
-0.75773907 5.8722296 -1.068352
-1.5223615 5.9124632 -1.051451
-1.4624537 6.0701675 -1.0758247
-0.79629064 6.0411501 -1.0839279
-3.183219 4.5532684 -0.90678799
-1.7055809 4.9022317 -0.97475791
-1.369562 4.9918442 -0.98242855
-1.5677524 5.0889506 -0.99617457
-1.8312969 5.1477642 -0.97999406
-6.9591351 6.0736418 -0.91602743
7.4727535 0.42899859 -0.84532583
3.7136374 1.1874248 -0.81502402
0.47699031 2.323045 -0.80934161
-3.8052151 4.5331998 -0.88468707
-7.0671911 5.7682505 -0.89874142
8.2403603 -1.0389241 -0.75119746
8.2735901 -0.72674429 -0.76230073
2.1373053 0.54608494 -0.71060586
2.2678928 0.52808285 -0.72016716
2.4677956 0.74363714 -0.72855067
1.4625643 0.85958815 -0.71771818
0.69442445 0.91517669 -0.7015546
1.6550041 0.93638647 -0.73389685
2.155982 0.90422404 -0.73953468
2.2445555 0.99383116 -0.74646068
0.30556941 1.0887585 -0.71096122
0.63133931 1.0947728 -0.72199345
1.1489797 1.072763 -0.73492801
2.1999578 1.0430231 -0.75389946
-0.33089399 1.2744687 -0.70926672
-0.078205302 1.3463259 -0.71907449
0.087338038 1.3646506 -0.73054636
0.24711548 1.3424433 -0.72028047
1.0553751 1.3269643 -0.74293864
-0.48790327 1.4832529 -0.71271437
-0.053972673 1.4994621 -0.73102832
-0.71196151 1.546706 -0.707313
1.0427108 1.5459237 -0.76059604
-0.30850229 1.6683594 -0.73595524
0.48119387 1.6877161 -0.75541449
-1.3121037 1.762188 -0.72543561
-0.53911626 2.0457504 -0.76320887
-2.5674548 3.0908623 -0.79261649
-6.064095 3.1881199 -0.71830666
-6.9007425 4.134028 -0.77035809
7.4441519 -1.7681974 -0.65202224
1.1069956 0.16504829 -0.64464658
1.3044976 0.32125497 -0.6724354
-0.12568922 0.74245059 -0.66167021
0.54226446 0.7961176 -0.68384755
0.31606874 0.93255395 -0.68700701
-0.47253826 1.1181514 -0.69201791
-1.0934352 1.2805938 -0.69342017
-0.95622128 1.2782679 -0.69752955
-0.6777612 1.2631586 -0.6959309
-2.9740825 1.3263102 -0.64297962
-8.1042566 3.1275675 -0.64500511
-8.0640984 3.5215797 -0.69097197
6.0730572 -2.4537866 -0.57638437
2.7335835 -1.8651645 -0.53596044
1.3046749 -1.7311847 -0.50827456
1.7121948 -1.6858499 -0.52267337
4.4653969 -1.6121796 -0.58524299
2.0754218 -1.5257254 -0.54647827
3.0412025 -1.5467875 -0.56568062
1.8413578 -1.4566882 -0.5375421
2.3067894 -1.4608598 -0.54721189
2.5049863 -1.4758945 -0.56164098
1.4683702 -1.3178793 -0.54379386
2.0898874 -1.3931239 -0.5385102
2.8282547 -1.2199939 -0.57328838
0.081015855 -1.0393401 -0.52532172
-0.028051943 -0.90896523 -0.53228939
0.29933104 -0.8457588 -0.54782724
-1.3026279 -0.69353431 -0.51696688
0.061655734 -0.69220787 -0.55840778
-1.4422187 -0.52782989 -0.52306181
-1.3416915 -0.51194173 -0.53751588
-2.726845 -0.47566593 -0.50327897
-3.5379572 0.092465736 -0.51614505
-4.2707424 0.2822369 -0.5171237
-4.2202339 0.47086716 -0.52623296
-3.841763 0.45345592 -0.53847277
-3.8798618 0.65800846 -0.56434619
-3.7051783 0.64452541 -0.55978388
-4.0793409 0.81037259 -0.56462222
-6.381886 1.1848792 -0.54061496
-6.6156092 1.2749145 -0.5420391
-6.458632 1.2791023 -0.5419172
-6.175302 1.4846293 -0.56687999
1.1087636 -2.0437648 -0.45886749
1.7132313 -2.0867586 -0.48714468
1.3092703 -1.9077466 -0.4802275
0.55391955 -1.8455386 -0.47193348
-0.23943761 -1.6221616 -0.46462017
0.098920241 -1.6479725 -0.48288482
-1.2610819 -1.4463273 -0.45304507
-0.91011548 -1.4801904 -0.45723987
-0.49956062 -1.4874409 -0.47568908
-0.87270677 -1.3569319 -0.46595526
-0.3320826 -1.3231268 -0.48053765
-1.4594808 -1.2820708 -0.45496395
-1.4958558 -1.061923 -0.48131323
-3.5200381 -0.90668696 -0.44131476
-3.8909106 -0.89434451 -0.42590308
-1.9017079 -0.85143197 -0.4816106
-2.2783856 -0.70972025 -0.48481962
-3.9152524 -0.64906597 -0.44541746
-5.3547521 -0.59609234 -0.41319099
-3.7595234 -0.50350541 -0.45846027
-4.1001711 -0.48471648 -0.4572345
-4.112062 0.090498358 -0.49992338
-7.1000128 0.91532195 -0.49457854
1.1600697 -11.238375 0.29582223
