# .PCD v0.7 - Point Cloud Data file format
VERSION 0.7
FIELDS x y z
SIZE 4 4 4
TYPE F F F
COUNT 1 1 1
WIDTH 65
HEIGHT 1
VIEWPOINT 0 0 0 1 0 0 0
POINTS 65
DATA ascii
6.4945326 13.804155 -1.2583144
10.933731 8.5328007 -0.81657863
1.9671547 10.454325 -0.73230648
8.9045525 6.4537725 -0.51870346
8.4880714 6.5409842 -0.51425815
-0.17222279 7.4620209 -0.32062548
-1.0685217 7.5425348 -0.30454224
8.7857447 3.6809058 -0.20317593
-2.8627582 7.935257 -0.27250844
-3.4775798 8.070303 -0.27584434
-6.5739322 8.6111259 -0.22134499
-6.5914574 8.1036911 -0.16680157
-6.6226072 8.2589645 -0.19480225
-3.1633577 4.7415752 0.089496508
8.4921169 0.49855199 0.16161504
5.7157145 1.6401342 0.14533031
1.4986484 2.6294835 0.17695197
-3.642189 4.566596 0.11716396
-3.1948743 4.5608459 0.10817465
-3.6933241 4.6144638 0.12101216
-3.2839203 4.6064653 0.11848823
-7.1603012 5.7280846 0.1079034
8.4663057 -0.55032873 0.29603672
8.2484627 -0.49318939 0.29330873
3.0819538 1.536116 0.22990209
2.6700907 1.6552398 0.23369288
8.1205273 -0.92083108 0.33651316
8.1699877 -0.73158562 0.32749522
8.2217159 -0.72388268 0.31120911
8.7097511 -0.73991263 0.30339965
-6.5275478 3.4729481 0.35554576
8.3438129 -1.9033912 0.45017064
8.2774734 -2.5366468 0.51608789
5.2821798 -2.3878584 0.59719431
-8.4177761 2.0698557 0.57595909
3.0015512 -2.406204 0.67447668
2.8963633 -2.3709624 0.67646283
3.1624444 -2.3495946 0.6796068
2.7570782 -2.2801006 0.68066478
2.1491151 -2.1796465 0.68836355
2.2739413 -2.1732275 0.67547047
-1.7286154 -1.0381416 0.69793576
-1.6590061 -0.94348681 0.67936695
-1.5784843 -0.94442427 0.67570341
-3.6873469 0.2301462 0.61772859
-0.26603785 -1.717203 0.71082669
-0.95261836 -1.6971235 0.7348333
-1.4305942 -1.4535446 0.72979361
-2.2034574 -1.1381862 0.71225286
-2.0853996 -1.1372159 0.72448206
-4.6367745 -0.55678993 0.73497516
-3.8802586 -0.58658433 0.71954143
-6.8241625 -0.40571332 0.79008579
-4.4567337 -0.32806328 0.71013957
-6.6526337 -0.025066301 0.75013119
-8.1838131 0.39828944 0.74203575
-8.6518211 0.56013155 0.73845369
-8.1978617 0.68247342 0.71271312
-8.6508121 0.70323586 0.72243977
6.5528955 -8.4778214 1.2550507
6.580575 -8.3471298 1.2302804
6.5888367 -8.0205832 1.20038
6.0951357 -12.568515 1.7248869
-0.87398481 -11.618286 1.8622148
3.3588428 -15.092365 2.1009102
