# .PCD v0.7 - Point Cloud Data file format
VERSION 0.7
FIELDS x y z
SIZE 4 4 4
TYPE F F F
COUNT 1 1 1
WIDTH 62
HEIGHT 1
VIEWPOINT 0 0 0 1 0 0 0
POINTS 62
DATA ascii
-1.4231255 11.198679 -0.65468144
-1.8791056 11.27635 -0.65804589
9.0194454 6.3900599 -0.54147619
9.3116932 6.3338914 -0.55103731
9.9202099 5.4972601 -0.48597977
5.8275204 6.1916885 -0.43199557
3.9286208 7.0184307 -0.4328025
2.9236171 7.6659236 -0.47317976
-2.701992 7.9057226 -0.31176555
-2.8139505 6.9173961 -0.21416979
-2.7830415 7.5300264 -0.27977613
-3.621326 7.991354 -0.28816083
-6.8410406 7.069088 -0.10261549
-6.7531433 7.2949982 -0.13371289
-6.7343864 7.5672355 -0.15308468
8.5306721 0.75849247 -0.0075826123
-7.1475091 5.9909821 -0.0034658983
7.6949744 0.033208176 0.083469689
4.0491204 1.3151935 0.093708932
4.5679235 1.5083985 0.052840587
1.4899404 2.1849346 0.074908316
-0.22695787 2.5696125 0.096162751
1.6982919 2.523294 0.036786459
-1.518194 3.2333791 0.076663934
-3.8070552 4.5784369 0.033506915
8.5399075 -1.0605094 0.16086733
8.3233757 -0.61823148 0.12449464
7.7319517 -0.25146985 0.11499429
2.8630276 1.5160531 0.10166242
0.05535429 2.5041697 0.10854079
-0.90910536 2.7190747 0.10043692
-1.2984006 2.8165338 0.10690261
-1.6220005 2.914041 0.11273763
-5.8031168 3.6213017 0.18550973
-5.7574811 3.6461921 0.18172783
-7.3755999 4.7603998 0.11616572
-7.7130756 4.911005 0.11660631
8.4049234 -2.3423479 0.2922051
-8.0178795 4.0475602 0.20017909
8.2440929 -2.6978703 0.31696212
-3.9664495 0.71099013 0.38513348
3.5867748 -2.6026554 0.46267122
2.9628229 -2.4083197 0.472233
2.0773234 -2.2150216 0.47366649
2.239321 -2.2134244 0.46918756
0.65359527 -1.5217702 0.44752589
-0.46969557 -1.4491861 0.49101111
0.62147856 -1.1446869 0.41446239
-1.7274058 -1.0364337 0.48774382
-1.5675805 -1.0253382 0.4730511
-1.5997088 -0.7906729 0.45887685
-8.6022873 1.1302581 0.49788669
-8.39223 1.4844172 0.46307275
-2.9231017 -0.97872853 0.51638186
-4.2919188 -0.83320045 0.54280043
-4.0615764 -0.83089137 0.54331815
-3.4234428 -0.84000504 0.52082419
-5.562108 -0.5094173 0.55872178
-4.821744 -0.4811779 0.51993662
-4.3706388 -0.36366284 0.50910401
-8.1386528 0.30334207 0.55649573
1.4514112 -11.225327 1.3374746
