# .PCD v0.7 - Point Cloud Data file format
VERSION 0.7
FIELDS x y z
SIZE 4 4 4
TYPE F F F
COUNT 1 1 1
WIDTH 62
HEIGHT 1
VIEWPOINT 0 0 0 1 0 0 0
POINTS 62
DATA ascii
6.3829007 -9.0149145 0.81428957
3.7630539 -7.1353579 0.86092114
1.9251422 -6.1090145 0.86370945
7.282445 -3.1341424 0.89489412
8.2117987 -3.120255 0.89203089
8.2807274 -2.4965277 0.89122665
6.8954554 -3.0480666 0.90790266
6.3103342 -2.9254291 0.90296459
4.5761614 -2.8771026 0.9114958
5.4551768 -2.8474035 0.9108451
8.1712894 -2.8831174 0.90070832
4.78444 -2.2858806 0.90956247
2.3065588 -2.177773 0.92380869
-0.68511748 -1.6100597 0.95366544
-1.3056951 -1.2943673 0.94586134
-2.1373439 -1.1011955 0.9546181
-1.6917154 -1.0598862 0.952613
8.5678129 -1.0371298 0.9192456
-6.3084669 -0.71220678 0.97175527
-4.4204755 -0.55829155 0.97671044
8.2363262 -0.47675818 0.92917621
-8.0526495 0.093583331 0.98392141
-6.3370285 0.055453792 0.97772229
8.4441624 0.058883347 0.9335475
2.1489203 0.86993319 0.9770304
8.3715153 0.86393559 0.94469219
1.9654891 0.94834483 0.97704399
1.8396817 1.1067718 0.96646088
2.0607264 1.1289728 0.96492648
8.6189022 1.3225865 0.95823324
-1.1469256 1.4245776 0.99340272
8.9324894 2.2037234 0.97197008
1.4930172 2.5753274 0.98941129
1.534158 2.8812459 0.99249095
1.8378251 2.9849339 0.99588168
-4.8181763 2.2583098 1.013992
-4.1997242 2.3884544 1.0145276
-4.6986141 2.4580615 1.0230961
-8.2665062 2.5807812 1.0298537
1.7895567 3.0158567 1.0037091
-1.2873172 3.1918781 1.012643
-8.1213493 3.320729 1.043313
1.5658989 3.4794745 1.0121682
-7.911552 4.0957193 1.045692
-7.0841084 4.8448596 1.0538241
-2.9509308 4.8862591 1.0490147
-7.6773329 4.9642692 1.0515966
-6.7266998 4.9626884 1.0536969
-2.4924943 4.9078112 1.0507069
-7.6409898 5.5534925 1.063529
-7.1181889 5.5831032 1.0613267
-5.6914258 5.5270486 1.0631833
-5.9386797 5.690259 1.0559882
-1.2343186 5.7581992 1.0543493
-1.4927317 5.8197784 1.0428108
-7.6131229 5.900631 1.0698891
-5.2242451 5.9165812 1.0695727
7.2633853 5.9549541 1.0303253
5.1555181 6.1397738 1.0262718
7.0925965 6.1059556 1.0276475
8.7876844 6.103075 1.0237081
6.1581516 6.2357225 1.0198413
