# .PCD v0.7 - Point Cloud Data file format
VERSION 0.7
FIELDS x y z
SIZE 4 4 4
TYPE F F F
COUNT 1 1 1
WIDTH 81
HEIGHT 1
VIEWPOINT 0 0 0 1 0 0 0
POINTS 81
DATA ascii
1.0057734 -7.481626 -1.5021051
-8.936697 -4.9150219 -1.533954
-9.0107107 -4.7863469 -1.515313
3.813458 -8.1265554 -1.482888
2.3262882 -7.670929 -1.4655132
-0.12953508 -5.0211968 -1.2074982
-1.0962226 -4.7291174 -1.1927943
-8.0180054 -2.3294189 -1.1332961
-3.4031429 -3.3107562 -1.0795083
-2.6104648 -3.3218768 -1.0573697
-3.7440617 -3.1150734 -1.0821595
-4.0674534 -3.0356493 -1.0823634
-0.27131978 -2.8980918 -0.91673768
-0.0086417198 -2.2144279 -0.80843693
1.2839017 -1.863571 -0.70140177
-8.5553741 0.57602477 -0.75182462
-8.5294685 0.70223629 -0.72701371
-8.4984121 0.91027403 -0.70313984
5.5105982 -2.8823595 -0.6845752
3.8731015 -2.1693895 -0.64258003
1.9107969 -1.5123432 -0.62909406
-0.24765468 -0.86638653 -0.62319481
-2.4887354 -0.3055073 -0.6271776
-1.3527323 -0.39786762 -0.60646468
-2.3344247 -0.25453138 -0.62095207
-7.4431105 0.60597843 -0.69203055
-7.1184444 0.86906159 -0.65253687
-8.3244839 1.0877302 -0.66154778
7.7140131 -2.9051759 -0.59897166
5.869812 -2.2371292 -0.56772864
6.2913952 -2.2393007 -0.55138946
0.29313493 -0.79119587 -0.58035874
-3.3476431 0.71103108 -0.52235734
-3.9461899 0.88218516 -0.52515715
-6.2242389 1.5707406 -0.51454055
-8.2765808 2.1442537 -0.51227695
-3.1046171 1.2671597 -0.44015673
-8.1911087 2.5809863 -0.44252554
1.2677841 0.84999186 -0.31321698
-1.0681621 1.3392951 -0.33873397
-2.9813571 1.9770387 -0.32422614
-2.9803495 2.0037947 -0.33026841
8.2457438 -0.85326552 -0.29215539
7.168438 -0.30170199 -0.24829762
3.0584621 0.71895671 -0.26752484
0.65266633 1.6162913 -0.23467106
-5.9292774 3.2661319 -0.25342414
-5.8072329 3.6135597 -0.20877115
4.7555895 0.81257069 -0.19568643
3.8622844 1.1819242 -0.16178495
3.8451834 1.2938637 -0.15904731
2.796057 1.3983629 -0.18982406
1.2374263 2.2253737 -0.13696337
0.31325394 2.3760633 -0.14435841
0.70998085 2.3253484 -0.13802689
-1.4837837 2.834094 -0.14828387
5.7625575 1.573414 -0.033843692
1.8098271 2.5335183 -0.06326203
1.7289174 2.6236665 -0.057473402
-1.5148442 3.2458797 -0.096368179
-7.3408504 4.7696056 -0.098647036
-7.3230896 4.8994613 -0.092806563
-3.2831094 4.5370111 0.023468139
-3.2821555 5.3190122 0.13326278
-3.2775054 5.801496 0.19374613
9.2549152 2.7657845 0.26789266
-3.1048501 5.8047438 0.2132664
-3.1594472 6.1663275 0.24794954
-3.0280943 6.268229 0.26541778
-2.9232922 6.3362484 0.29513496
-7.0701957 7.3177843 0.26241416
-6.8334827 7.9199705 0.35346735
-7.0814991 8.1014862 0.37469238
9.7417898 4.5617762 0.52874446
-0.99196672 7.5677619 0.53611195
-2.7035975 7.9641051 0.51900303
-6.8914223 9.283309 0.53579366
10.041665 5.8647604 0.7243951
6.762362 6.5830364 0.70463359
8.2492332 6.6857033 0.76685369
-0.98688698 11.23193 1.0478399
