# .PCD v0.7 - Point Cloud Data file format
VERSION 0.7
FIELDS x y z
SIZE 4 4 4
TYPE F F F
COUNT 1 1 1
WIDTH 100
HEIGHT 1
VIEWPOINT 0 0 0 1 0 0 0
POINTS 100
DATA ascii
5.7929816 -9.3420315 -1.9125762
2.1665392 -8.11514 -1.7292744
0.88630462 -7.7814012 -1.6567953
1.4836241 -7.7545409 -1.6616172
-0.2595371 -7.2826562 -1.5809937
-1.4630163 -6.8025279 -1.515964
-5.7845073 -5.1345005 -1.2462115
-6.4551497 -4.917223 -1.211308
-0.58655858 -4.8715458 -1.2433685
-6.9892702 -4.6192398 -1.1598198
-7.281435 -4.5046306 -1.1599287
-9.2473488 -3.9069469 -1.0476888
0.79035282 -3.024416 -1.0019536
8.2906685 -2.652946 -1.0089846
0.74278343 -2.9220281 -0.98750484
-4.6533499 -2.8842802 -0.95295668
-0.33617097 -2.7643995 -0.96282727
4.5093284 -2.5951152 -0.97153795
7.3380299 -2.5032852 -0.97971463
7.4107475 -2.5471072 -0.97524792
7.7284746 -2.5152445 -0.96942055
6.109643 -2.4923329 -0.96168137
6.6386666 -2.3360944 -0.94154942
7.4334502 -2.3086686 -0.94958961
5.1220174 -2.2538476 -0.92538393
0.25556445 -2.2210882 -0.88885355
3.3588388 -1.7393633 -0.83601117
3.4706919 -1.7764421 -0.85310018
3.8326478 -1.7151415 -0.84102291
5.3827219 -1.6961366 -0.8485828
2.9294665 -1.5123086 -0.8134771
-4.5010009 -1.2410349 -0.70674652
1.0945635 -1.2772419 -0.75969303
-3.648684 -0.43267593 -0.60542953
-3.0406775 -0.48179665 -0.61910713
-2.9752092 -0.45381865 -0.62452424
-1.8459077 -0.48246768 -0.6270026
8.409256 -0.47677821 -0.69790262
4.2973623 -0.29721415 -0.65152574
5.3212881 -0.20926082 -0.63715267
5.7381048 -0.21582162 -0.65228236
5.8104024 -0.29142523 -0.66081703
5.1618791 -0.16603756 -0.63624448
-7.3787689 -0.27869028 -0.55695617
-6.8215895 -0.20162362 -0.55269593
-4.409605 -0.22601342 -0.567451
-4.7175426 0.11010653 -0.52006817
-2.7059875 0.18866824 -0.51990259
-3.8702617 0.27614838 -0.50547159
-3.5555449 0.29322624 -0.51499474
-2.916831 0.26725066 -0.52560687
1.1012812 0.26604068 -0.55087245
0.50318182 0.45624381 -0.51546484
0.88980186 0.42546546 -0.51680028
2.4438431 0.42608255 -0.53456962
4.9199591 0.49064758 -0.53217232
7.8402472 0.62193811 -0.54128921
6.6801596 0.74871939 -0.52401841
1.1535804 0.72722685 -0.47080123
1.2361697 0.82994592 -0.46966434
2.9048629 0.89876461 -0.47063497
3.0433052 0.88319874 -0.46474701
-3.2493415 0.91380942 -0.42045331
4.6430368 1.4925907 -0.40401739
8.7213898 1.4527583 -0.43329766
-3.8544633 1.114011 -0.39723039
5.0007915 1.5301186 -0.39559272
0.86689293 1.6649473 -0.35338208
-0.89837277 1.8457489 -0.31328279
-3.4357293 1.8234982 -0.29377407
1.2414377 2.2228398 -0.28036195
1.6172628 2.2663541 -0.2744512
-0.082799777 2.3312995 -0.24262062
-8.1641998 2.9323575 -0.10674052
5.7446966 3.4117661 -0.14333001
8.849515 3.7571371 -0.11205941
-3.867424 4.6371398 0.093822859
-7.4319725 4.708375 0.13335261
-3.251467 5.0626354 0.14712185
-3.2766361 5.4473343 0.21859241
5.7722545 6.1434498 0.24164309
5.8407607 6.1483746 0.24347496
5.4330235 6.3218212 0.2739037
8.8184814 6.5352569 0.28512987
-7.3119459 6.1562181 0.34102565
-3.4046826 6.4835634 0.36323416
4.0691233 6.4874783 0.3037129
4.2761493 6.4740491 0.31056672
4.4085054 6.6005211 0.32767999
-3.629396 6.7903943 0.3908377
7.6125774 6.7801666 0.31693572
3.2603586 7.8194485 0.48835385
-2.1338491 7.780386 0.52814561
0.087526456 7.8873377 0.53691936
0.55456567 8.2531977 0.57638407
-0.70050561 8.3616657 0.5970372
12.549228 8.3665733 0.50919765
10.948843 8.7038689 0.57163644
-3.4648244 8.6610355 0.65073466
-6.3672647 9.6494179 0.81088758
