# .PCD v0.7 - Point Cloud Data file format
VERSION 0.7
FIELDS x y z
SIZE 4 4 4
TYPE F F F
COUNT 1 1 1
WIDTH 65
HEIGHT 1
VIEWPOINT 0 0 0 1 0 0 0
POINTS 65
DATA ascii
0.81980205 10.826018 -0.018966831
12.554976 8.3054657 0.18517599
-6.4881086 8.4550543 0.28333801
-6.6955805 9.2180767 0.20751229
4.1477437 7.6080303 0.30911291
-7.094697 7.8428025 0.35398161
-2.6380644 7.8946228 0.33118919
-2.2093697 7.8624096 0.33446279
-6.538301 7.9871626 0.33373556
-2.8365116 8.0162277 0.31341088
-2.7475111 8.0206699 0.31191343
-3.3692179 8.1203117 0.31099892
5.7843494 6.1531196 0.4592953
5.8402643 6.2518005 0.46307915
5.3438067 6.3892527 0.45070899
-7.1535926 6.7064686 0.49150729
-2.2063177 5.4546661 0.59783965
-5.4669094 5.7574835 0.58572614
-5.3341269 5.7676649 0.58212447
-5.325448 5.852963 0.57500088
4.577116 4.3107743 0.67957842
1.3916086 4.6413345 0.66468561
1.4158654 4.6978202 0.65522611
1.4527862 4.9254885 0.62469119
-2.2835059 5.0520601 0.64431173
-2.0426891 5.0847855 0.64293957
-5.5006609 5.2568622 0.62917548
7.7579117 3.1159377 0.78746951
7.919301 3.1085601 0.791875
7.7436805 3.2568445 0.77873683
7.7829962 3.511229 0.75086725
1.1841002 3.9644399 0.73478955
1.2900577 3.9529786 0.74270898
1.1820934 4.0074153 0.72705162
-7.3983407 4.7845278 0.70243353
8.8409929 1.5680215 0.96190304
-4.2787666 2.3640382 0.94187236
-4.5475612 2.6545849 0.91689491
8.6366634 0.29094481 1.0993109
2.1401315 0.89715457 1.0678921
8.3733997 0.87807012 1.0294371
5.1486521 -0.074108556 1.1656399
5.297955 0.11936388 1.1443994
5.1770005 0.42379606 1.1147343
5.4846444 0.48004431 1.105453
5.6295276 0.4486714 1.1008769
5.2840185 0.52777696 1.1055634
-4.0796552 -0.80372119 1.2920674
-5.2840681 -0.6149621 1.2881089
-1.0350842 -1.4739523 1.3478388
-1.4414699 -1.3186333 1.3417394
6.9765038 -8.3426256 2.074832
3.7046325 -7.9804773 2.0464773
6.1036053 -9.3063631 2.185113
2.5429397 -9.0883417 2.1869125
5.7666225 -9.0335827 2.1436489
6.6228828 -8.972023 2.1428821
6.8617439 -8.8126335 2.1156433
4.5763988 -10.21664 2.2996993
3.2263024 -10.075185 2.2824464
5.1353664 -9.8980141 2.2517049
2.5307629 -9.7210464 2.2427626
4.7668905 -9.7914438 2.2419837
5.9170442 -9.5695047 2.2105412
2.7034831 -11.246445 2.4236057
