# .PCD v0.7 - Point Cloud Data file format
VERSION 0.7
FIELDS x y z
SIZE 4 4 4
TYPE F F F
COUNT 1 1 1
WIDTH 58
HEIGHT 1
VIEWPOINT 0 0 0 1 0 0 0
POINTS 58
DATA ascii
2.9260502 -10.747778 -3.1195369
-7.7776828 -7.9323974 -3.1431029
-8.5061245 -7.3458419 -2.9186497
-6.9623256 -7.6261497 -2.8543794
-7.0245528 -7.3953705 -2.7327282
-7.8091736 -7.2559662 -2.7606382
-6.2524309 -7.4176884 -2.6183014
-6.7240705 -7.3390965 -2.6466417
-5.4721031 -7.4685769 -2.5378704
3.1908569 -9.699687 -2.4860015
3.2314963 -9.681365 -2.4710393
2.1710663 -9.3887024 -2.4586425
-6.53268 -7.0798521 -2.4789963
-6.6054649 -6.8466783 -2.3545549
3.4454699 -9.2657614 -2.2097917
2.4222262 -9.1683483 -2.2908821
1.4813118 -8.8851175 -2.2761228
-5.3913841 -6.9570465 -2.2404213
4.1581521 -9.2937784 -2.1122947
-6.1656113 -6.5334334 -2.1172645
-5.7974963 -6.5361719 -2.0666432
-6.3694806 -6.331665 -2.0367568
4.2065258 -9.030035 -1.9483113
2.233398 -8.5398531 -1.9721563
-6.6232214 -6.1201968 -1.9414153
1.4624715 -8.0867519 -1.8280056
0.66818362 -7.8846107 -1.8400537
-8.5614042 -5.4285641 -1.8609979
6.0573778 -8.877327 -1.5906193
5.0628929 -8.462079 -1.5088879
5.7670279 -8.6283703 -1.4930438
-8.2061138 -4.5958576 -1.3368454
5.0197873 -7.9663544 -1.2476487
1.7016848 -7.1683874 -1.2839365
-1.0106528 -6.3655672 -1.236307
-1.3775475 -6.2847743 -1.2666531
-7.1191115 -4.6626096 -1.2167668
-4.0317173 -5.2464714 -1.0727357
-4.079772 -5.1222162 -1.0165092
-6.5683455 -4.6125903 -1.0917077
4.8214808 -7.4231806 -0.95979995
4.6195374 -7.3455696 -0.95542645
-6.9656115 -0.63086438 1.0791088
-7.5182934 -0.56314284 1.037986
-6.9996252 -0.23304437 1.2968911
-5.4693589 -0.54556543 1.3367
-1.0262616 -1.5506327 1.4459031
-2.517602 -1.1259567 1.4551135
-8.2302818 0.71063209 1.6352837
-8.3540258 0.82464188 1.673728
-3.1361275 0.36971033 2.1958511
-6.4095469 1.2335865 2.2090824
3.5748787 -1.0610197 2.4128861
6.9368753 -1.7233541 2.5346441
-3.4989443 1.3061535 2.6834781
5.3135347 -0.87700379 2.7809396
5.3206758 -0.57652444 2.9349394
7.0761395 -0.50802374 3.2372613
