# .PCD v0.7 - Point Cloud Data file format
VERSION 0.7
FIELDS x y z
SIZE 4 4 4
TYPE F F F
COUNT 1 1 1
WIDTH 62
HEIGHT 1
VIEWPOINT 0 0 0 1 0 0 0
POINTS 62
DATA ascii
8.0819435 -3.3092546 -0.84365666
6.661942 -2.2981443 -0.70344615
8.5475864 -1.0734985 -0.71246594
4.9861598 -1.9738576 -0.61786652
7.0178328 -1.867223 -0.69014019
8.2769918 -0.47301191 -0.65112889
2.7503603 -1.6954688 -0.5057292
5.315341 -0.11677033 -0.50413358
7.0010529 0.40622532 -0.53198999
8.4732046 0.62648493 -0.58019513
2.8555365 -1.7072808 -0.49947065
4.2978516 -0.37973595 -0.47578275
4.9200974 0.86774182 -0.40686285
8.9303627 2.6225147 -0.44868279
9.1757011 2.8213968 -0.45881009
-0.68289292 -1.3226056 -0.32784235
-0.061994016 -1.344155 -0.34855646
3.2505395 0.84391749 -0.34391287
2.9366436 0.91143823 -0.30915278
4.3152213 0.9270187 -0.37332112
8.7488022 3.3849368 -0.39403954
-1.6454773 -1.0399921 -0.26539212
0.69046384 0.45344749 -0.25868517
1.1550941 0.68611288 -0.25469071
2.7406545 1.3932931 -0.28027475
2.6939814 1.4425313 -0.27040094
5.4141989 3.4083173 -0.24047624
9.9856606 6.2754478 -0.23317814
-2.6346259 -0.75174379 -0.18742862
-3.4855142 -0.48379457 -0.13474798
-4.0977945 -0.314417 -0.10925411
0.7475816 1.4877859 -0.19082972
0.80676812 1.6217909 -0.18225917
1.293244 1.6303216 -0.19391537
1.6078253 2.193114 -0.16560504
0.50444889 2.4201312 -0.11383059
-3.4927583 0.711182 -0.04525784
-0.091811687 2.5115881 -0.069884568
6.8184214 6.5053711 -0.080734313
10.822491 8.6328907 -0.099166512
10.124231 8.8632708 -0.057419438
7.6843524 9.416666 0.087399274
-5.8525324 3.4732823 0.24408706
-6.8853436 3.5817342 0.29804847
-6.1894231 3.6939111 0.26949006
1.685722 8.0434399 0.25427848
-7.016644 3.5979528 0.30748409
-7.3066273 3.6598418 0.32906476
-1.85128 7.805666 0.37994456
-7.3084784 5.692009 0.47485235
-7.1207285 5.8486781 0.46399027
-7.1237993 6.1061587 0.4977473
-7.1100149 6.20502 0.49657553
-5.1140127 7.4745135 0.49279258
-7.5039721 6.1404324 0.51304758
-7.1837759 6.553566 0.52645266
-7.2729225 6.6639848 0.54584765
-6.911973 7.0627747 0.54106611
-6.8727503 7.4250278 0.57698286
-7.1504951 7.6590753 0.6102581
-6.5068512 9.2171288 0.69047093
-5.5348825 9.6436777 0.67520678
