# .PCD v0.7 - Point Cloud Data file format
VERSION 0.7
FIELDS x y z
SIZE 4 4 4
TYPE F F F
COUNT 1 1 1
WIDTH 83
HEIGHT 1
VIEWPOINT 0 0 0 1 0 0 0
POINTS 83
DATA ascii
-8.6159248 -6.112916 -2.3177176
-8.9740639 -6.0686173 -2.3502738
-7.4483099 -6.2783628 -2.1945896
-5.0031114 -6.5181556 -1.9131107
-1.9835334 -6.8511724 -1.5944886
-2.5672464 -4.315289 -1.393127
-5.1228886 -0.52486813 -1.3037761
-5.4386292 -0.24032439 -1.3207041
-3.5056653 -1.6536063 -1.2262554
-3.4477215 -1.4794999 -1.2044559
-0.54266965 -4.7231307 -1.1826854
-3.1243906 -1.3183239 -1.1414678
-2.9961405 -1.278772 -1.1369812
-4.0014811 -0.16888845 -1.1439124
-3.899158 -0.15321732 -1.1260624
-2.8603201 -0.8916713 -1.0714509
-4.0390015 0.32135811 -1.0875387
-4.0091949 0.46917564 -1.0671234
-3.9517448 0.48372012 -1.0689561
-3.5990746 0.54314685 -1.0227181
3.3512702 -7.0248938 -0.94278383
0.046602111 -2.881233 -0.92907876
-3.1382759 0.86738431 -0.91556942
-3.723762 1.0449488 -0.96781635
-7.2325368 5.2970982 -0.9582603
0.65708107 -3.2403202 -0.89752126
0.65013838 -2.709039 -0.8258388
0.46310061 -2.5419147 -0.83450752
1.6390896 -2.6258514 -0.71219772
-0.26911759 -1.2569349 -0.79707783
-2.8386896 2.5080876 -0.71202731
1.3259223 -1.7400663 -0.6590817
1.464487 -1.7217283 -0.62878168
0.66702318 -1.3309993 -0.68986243
0.59751487 -1.276366 -0.69597733
-2.825139 2.7513015 -0.69028246
-5.3042593 5.6165361 -0.69334465
2.5964613 -2.7398272 -0.58975434
1.6896228 -1.3432343 -0.56357193
2.2295926 -1.3770423 -0.51254648
-0.63189954 1.8366044 -0.51511049
-0.51284951 1.8391758 -0.51029801
-6.5923934 8.3170853 -0.56710327
3.9082246 -2.4572423 -0.41929388
3.0317218 -2.068706 -0.47146672
3.2559171 -1.8430717 -0.42333722
1.0737386 0.49072304 -0.44217792
-0.90292525 2.6738749 -0.46064666
-0.35982287 2.6130307 -0.40009746
-3.0947332 5.2332315 -0.4639799
-6.3137131 9.2094212 -0.45041987
4.517251 -2.4754546 -0.34506443
2.2184362 0.25710919 -0.33578753
1.5120751 0.74762744 -0.37647063
4.9574208 -2.098042 -0.24477911
4.1397157 -1.3646154 -0.27190632
4.2488451 -1.3871448 -0.24859066
-2.8811767 7.4557233 -0.20792399
5.9028282 -2.3829494 -0.16354857
3.0968294 1.3372383 -0.11142814
7.1197205 -3.2401521 -0.091037497
6.8994656 -2.7066216 -0.066298611
6.8218799 -2.5089588 -0.0622105
8.3722038 -2.2576261 0.15875047
8.3811836 -2.1076512 0.17383626
-0.76372236 8.3393993 0.13443944
-12.466875 21.770718 0.10565462
-12.30946 22.082485 0.16240349
8.5015411 -1.2565973 0.27410826
7.5440025 -0.13504376 0.28112617
5.5073333 1.5982049 0.20432243
5.4538908 1.6362075 0.20591529
8.19174 -0.46313041 0.32561514
8.1268291 -0.28599557 0.32338595
7.6221371 0.084952906 0.31088746
8.4745255 0.43621099 0.43849599
8.8092937 2.1777518 0.66531026
8.6981974 2.2965088 0.6583339
5.5742731 6.1586041 0.68309033
4.1586523 7.5814276 0.66777384
8.0325155 3.737473 0.73525763
7.3155951 6.6823616 0.96084732
7.5522499 6.6414719 0.98488212
