# .PCD v0.7 - Point Cloud Data file format
VERSION 0.7
FIELDS x y z
SIZE 4 4 4
TYPE F F F
COUNT 1 1 1
WIDTH 70
HEIGHT 1
VIEWPOINT 0 0 0 1 0 0 0
POINTS 70
DATA ascii
4.6253843 -8.0832176 -1.3269684
3.4697852 -7.794621 -1.3382373
2.1209228 -7.3813062 -1.3292043
-1.0523477 -6.5072746 -1.3368334
-0.57595026 -6.4717178 -1.3305182
-2.5409646 -6.1158285 -1.3519886
-3.1607265 -5.9580536 -1.3541969
-9.8220797 -3.7767434 -1.3526083
-2.5025241 -4.4097881 -1.276898
-2.2918401 -4.443861 -1.2733676
-3.0346003 -4.2470365 -1.283457
-7.2373343 -2.8602703 -1.2882476
-7.0681725 -1.6758816 -1.2224741
-0.50213337 -2.1309557 -1.1450436
-3.076508 -1.617852 -1.1631378
0.92098898 -1.4384222 -1.1023338
-5.7432899 -0.8567428 -1.1717805
-3.8749437 -0.51490182 -1.1292386
-3.9294057 -0.24868241 -1.1072421
-7.5233479 0.59378922 -1.1400028
-7.6192651 1.0211749 -1.1159581
-7.5317707 1.1082193 -1.1126001
7.9298959 -2.3121984 -1.0185932
6.0526524 -2.0907736 -1.0504106
3.4079051 -1.7089508 -1.071476
4.9721189 -1.5397656 -1.0336894
5.0207596 -1.5535798 -1.0295657
2.4123726 -1.4701319 -1.0731634
0.91438639 -1.1623766 -1.0855794
-0.089607209 -1.0566087 -1.0891962
0.64050525 -0.90134418 -1.0744412
0.3403796 -0.88881469 -1.0872774
-1.4962188 -0.65246046 -1.0964074
0.65887076 0.63503689 -1.0099319
-0.95644665 0.8060258 -1.0347121
-3.2785065 0.94083488 -1.0597143
-3.1100326 1.0903972 -1.0401007
-3.0334611 1.2574537 -1.0331544
-6.2587996 1.6259878 -1.0711561
-7.9801264 3.4215178 -1.0106435
7.9845824 -1.2274473 -0.98496455
8.0425892 -1.2536073 -0.97974765
8.3514948 -1.0395581 -0.97005236
8.7148342 -0.93961805 -0.95193386
8.3529682 -0.74537474 -0.94966972
8.7140312 -0.71499133 -0.95052642
8.8099384 -0.45876673 -0.93733764
2.9030266 1.8236735 -0.91302854
-2.8659968 2.0407469 -0.99781668
1.0545912 2.2554941 -0.92517853
-1.5039777 2.453264 -0.95646065
-3.257735 2.6475518 -0.98009223
-3.1734369 2.6412854 -0.98590958
-2.9147243 3.3185482 -0.93918109
8.392004 0.82442433 -0.88626093
8.7328186 1.8609145 -0.82992291
4.4649305 2.13199 -0.89285916
-6.8479438 6.9552555 -0.84171903
5.9452896 5.7033668 -0.7067157
5.5161648 6.1323738 -0.70436263
-0.55221289 7.553587 -0.73230886
-2.773762 7.9352646 -0.74649757
4.0901408 7.3747149 -0.6656031
3.8655727 7.5329113 -0.65231967
10.101076 8.7612019 -0.51036084
4.0737181 10.110117 -0.54912919
0.88788044 10.727978 -0.57410675
-0.65815824 11.106308 -0.5717274
-11.834675 24.604153 -0.15304677
-11.773285 24.874039 -0.1344997
