# .PCD v0.7 - Point Cloud Data file format
VERSION 0.7
FIELDS x y z
SIZE 4 4 4
TYPE F F F
COUNT 1 1 1
WIDTH 105
HEIGHT 1
VIEWPOINT 0 0 0 1 0 0 0
POINTS 105
DATA ascii
-10.551023 -5.5145102 -2.5290713
-7.7410345 -6.4891047 -2.3009791
-7.8278155 -6.3231483 -2.2745163
-8.0611296 -5.2552991 -2.1720064
-2.976346 -4.2104383 -1.4160469
0.67540133 -6.9587536 -1.2905715
-1.434993 -4.6227331 -1.2656931
-4.164259 -1.9339365 -1.2818859
-4.9778214 -0.83672392 -1.2323608
-7.0011816 1.253787 -1.2361999
1.5720304 -7.0246592 -1.1809984
-0.13884389 -5.0640674 -1.1654025
-0.28202859 -4.9242182 -1.1659582
-0.095949769 -4.9997687 -1.1459553
-3.4571126 -1.7710304 -1.1633195
-6.3007107 1.2056136 -1.1494547
-6.1971684 1.2623768 -1.1307745
-6.1649833 1.5196545 -1.1048043
-0.24402769 -3.8319976 -1.0133272
-4.0899873 -0.48249465 -1.0844603
-5.8807182 1.6867366 -1.0460405
-0.16434108 -3.391118 -0.94105148
-3.7335563 0.61836469 -0.90813923
-2.5222144 -0.56929505 -0.89150262
-3.5417387 0.59132433 -0.87975061
-6.3819194 4.048161 -0.80503726
-6.9927735 4.2954617 -0.85349518
-7.1531386 4.4527674 -0.85563928
1.0621376 -2.9815292 -0.74628514
0.9578898 -2.6887751 -0.72146022
0.34701538 -2.5125618 -0.77214092
0.83394861 -2.5490351 -0.71816128
-7.1471901 5.6781583 -0.70884198
1.6824197 -2.5393853 -0.60895693
1.041383 -2.1380384 -0.64966232
0.60948181 -1.4296062 -0.60451865
-3.4117303 2.3155932 -0.65815479
-3.3578768 2.3212638 -0.63367653
-3.4065588 2.5726388 -0.61515701
-7.1420498 5.9124136 -0.66866505
2.1071792 -2.6005411 -0.55977005
1.8326819 -2.5725112 -0.58656669
1.8873518 -1.9605851 -0.52054906
0.74050659 -1.0919504 -0.54915714
-3.51845 2.7466116 -0.59963524
-3.0491948 2.7784488 -0.55059433
-2.7133598 2.8309748 -0.50305253
-3.5421913 2.9274073 -0.58914804
-6.9239149 6.4571271 -0.56831872
1.4725778 -1.4409466 -0.49807423
0.33087569 0.38680959 -0.40847138
-4.1538658 4.578805 -0.46668115
-4.3300295 4.8089137 -0.45981312
-6.9378648 7.1046395 -0.49792981
3.2862606 -1.8421557 -0.33091459
2.5468998 -1.5165987 -0.37482148
2.508965 -1.3457916 -0.36157566
1.1100385 0.18546192 -0.34492683
1.2853626 0.17594987 -0.31871039
1.2530092 0.33889115 -0.30751911
-1.0035372 2.3361745 -0.33494008
2.937912 -1.2397263 -0.29038578
0.58160424 1.3448236 -0.26678163
0.4997502 1.6201413 -0.23913699
-0.72924751 2.5482142 -0.2777724
-0.31617537 2.5574379 -0.2270301
-0.53190202 2.6197281 -0.24954775
-3.1281247 4.9342756 -0.29262018
-3.0659144 5.2271385 -0.25047955
-6.6829448 9.1089067 -0.21320699
5.7208047 -2.5185888 -0.10160171
4.9517331 -2.0920842 -0.13947248
1.1363034 1.4542371 -0.19025472
5.8978047 -2.5077791 -0.069634512
-2.783092 6.6405859 -0.037187412
6.8631554 -2.6893756 0.027078766
6.7131968 -2.3545454 0.038752321
2.8631067 1.3816086 0.020880349
2.6992631 1.9482054 0.068133295
1.7273402 2.6137271 0.03582561
-2.794394 6.9766407 0.016616076
-2.7815549 7.0107803 0.013403773
7.8819275 -3.0441389 0.10539597
8.2273149 -3.0672846 0.15228173
3.4552395 1.3785988 0.10877544
3.8325009 1.362534 0.14803825
3.6691623 1.4129629 0.12975945
3.2379751 1.8204374 0.12023202
-2.7571697 8.0200405 0.14001524
8.3757277 -1.8821957 0.31288832
-0.9549427 8.0622339 0.37532464
8.1283607 -0.90890396 0.41347557
8.2599773 -0.68159246 0.44201916
8.6541386 -0.65146112 0.49563631
8.8007002 -0.40649611 0.56190139
8.4392071 0.18831389 0.58493131
1.7945615 7.7907271 0.69417292
-8.4783554 17.482426 0.60281175
-8.5636463 17.627972 0.61915469
8.5695353 1.029686 0.70030022
7.8354416 2.7476294 0.83335328
7.7026286 3.1162224 0.85445297
3.2656906 7.7831526 0.88535458
9.0719767 2.9712639 1.0012511
9.6401806 4.1246719 1.2190084
