# .PCD v0.7 - Point Cloud Data file format
VERSION 0.7
FIELDS x y z
SIZE 4 4 4
TYPE F F F
COUNT 1 1 1
WIDTH 157
HEIGHT 1
VIEWPOINT 0 0 0 1 0 0 0
POINTS 157
DATA ascii
-6.3168378 8.607357 0.79259384
-5.9117084 8.7807207 0.77905357
-5.703414 8.8541794 0.77144724
-4.2992678 9.2847385 0.73315573
-3.8567572 9.2144337 0.73916864
-5.6787052 9.5308266 0.72514832
-6.0594645 9.6299334 0.71835464
-6.3847985 7.407197 0.89769834
-1.0900742 7.5804715 0.87318075
-0.64053702 7.8251176 0.86387956
-2.8869915 7.9001427 0.84774458
-0.90116066 7.9091663 0.85418731
-6.6011462 8.0862656 0.85086375
-0.91746938 8.0976677 0.84024107
2.1603324 8.0030079 0.83083528
-7.055891 8.2002106 0.82745111
-0.57731503 6.1639628 0.98477918
0.99494076 6.1306028 0.99615753
4.9169493 6.1784153 0.9827131
5.8966084 6.1497784 0.97076297
0.68524981 6.2313023 0.98848772
-6.6630173 6.3641648 0.98375237
-5.8472514 6.4915218 0.97400934
-0.21369149 6.66502 0.95366484
-6.3249593 6.7263575 0.96157134
-0.22434577 6.8881793 0.92349851
-2.2840633 7.0469141 0.91085559
4.0433602 7.0391841 0.9010433
-7.2489595 7.3047791 0.91512114
2.3060336 4.8665714 1.0993959
2.6815991 4.9341393 1.0908209
-0.090381928 5.0274286 1.0836918
1.756566 5.0952516 1.0687357
2.1454806 5.0717211 1.0785518
2.2740042 5.0470791 1.0716376
2.8814325 5.0759497 1.0716405
-0.26133078 5.1480732 1.0702356
1.2524946 5.1574392 1.0714512
-5.8943567 5.2847757 1.0740578
1.2269175 5.2162147 1.0581156
2.0748107 5.2733326 1.0605289
-3.7514272 5.3798876 1.0514767
-5.8083954 5.4751444 1.0603796
-4.9519925 5.4718761 1.0547185
0.062154293 5.4524484 1.0457754
1.427204 5.4777141 1.0500429
1.8639374 5.4972568 1.0443394
1.1578083 5.5069351 1.0392901
5.9425583 5.5532999 1.0316563
-6.2331171 5.8777475 1.026009
3.6533794 3.4358792 1.1964588
6.179388 3.473722 1.1950606
8.6000881 3.4953413 1.1834567
2.7728159 3.5840273 1.1901004
2.9031515 3.5841208 1.1959959
3.1259742 3.5425458 1.1938717
3.3474083 3.5083075 1.1923616
5.9600925 3.5422866 1.1923373
6.6870546 3.5521059 1.1958935
7.2863436 3.5211616 1.1905543
8.2339783 3.5220795 1.1834598
9.2793198 3.5029819 1.1866846
0.41074753 3.675272 1.1829677
2.5097899 3.634726 1.1828531
-0.50261402 3.7849376 1.1896353
2.2704561 3.7362242 1.1748369
4.6644368 3.7240219 1.1791701
1.4969053 3.8886406 1.1761672
1.7483029 3.8253338 1.1697292
2.1031733 3.8893757 1.1701336
2.5439095 3.855855 1.1710573
8.2185726 4.1856699 1.1455271
-4.4768138 4.2365117 1.1516411
-4.736702 4.3215828 1.1383219
-5.7215867 4.6274028 1.1127996
-6.5325623 4.7149429 1.1105407
0.57993162 4.7111101 1.1142304
1.080003 4.7238455 1.1100667
-1.4997039 4.8665543 1.1002955
5.723536 2.2956445 1.2981489
4.3819666 2.3144174 1.2959884
4.8918676 2.3448148 1.2918096
5.3655043 2.3202925 1.2958889
5.0984793 2.4764752 1.2811314
3.2169242 2.5716305 1.2681475
2.1896253 2.6306083 1.2736279
3.687125 2.6639116 1.2659719
3.071471 2.7305455 1.2686768
3.4962986 2.7229738 1.2631979
8.7309494 2.7437589 1.25102
9.4167824 2.7237387 1.2628378
0.6394906 2.9933281 1.2488874
3.2281466 2.9006855 1.247334
9.0653133 2.9141483 1.2450221
3.0846066 3.0917759 1.2397513
3.6828458 3.030597 1.2280535
9.3518257 3.0744786 1.2296965
2.2387497 3.1980824 1.2337158
3.2316785 3.1143024 1.2400961
1.9536343 3.2522366 1.2274766
2.043304 3.2875488 1.2207868
2.2607079 3.296052 1.2217652
9.1589241 3.2395329 1.212589
6.1948695 3.3998637 1.2087904
2.2662382 3.4550748 1.2137904
3.3074732 3.4791393 1.2097862
-1.8517659 3.5358992 1.2137246
8.6998539 1.6111122 1.3368881
9.0607805 1.9025476 1.3246009
6.9112473 2.1168599 1.3106078
-8.3492212 0.059793904 1.4963593
-7.1523662 0.14667875 1.488685
-8.529727 0.99816531 1.4285543
-6.7462196 -0.31214768 1.516413
-6.8265419 -0.12884879 1.5191722
5.020402 -2.059175 1.6442046
1.5149558 -1.956576 1.6523449
-0.79566669 -1.4630995 1.6058271
8.0178337 -3.400475 1.7531745
3.9515009 -5.5466423 1.9387909
2.4562576 -7.5036621 2.0965137
2.9673369 -7.4528208 2.0919399
3.2631917 -7.4560356 2.0867553
2.3269162 -7.3027215 2.0753779
2.5408072 -7.3405037 2.0753894
4.553648 -8.601202 2.1784992
1.5624185 -8.5887432 2.1817539
4.975482 -8.5540209 2.18203
4.6920996 -8.2462473 2.1505568
3.6556001 -8.1250267 2.1404614
5.3633995 -8.1825218 2.1504459
4.754015 -8.0928354 2.146275
3.033397 -7.8854675 2.1191423
4.1013908 -7.8215942 2.120574
3.7280221 -7.6607924 2.1037011
0.3673507 -10.040574 2.2980759
4.659358 -9.9270592 2.2908678
6.1045694 -9.8283825 2.2741148
3.1345265 -9.7807865 2.2733672
3.5831609 -9.4464407 2.2470315
3.9097691 -9.4157267 2.2541804
1.984736 -9.3730145 2.2415223
3.9498618 -9.1682043 2.2278886
2.54158 -9.0826035 2.2343898
4.4942379 -8.9122944 2.2033973
1.9102256 -8.8739443 2.2054532
4.0249062 -8.8617954 2.208462
4.871696 -11.20064 2.388869
5.0377202 -10.998889 2.3681417
5.3448009 -10.715664 2.3494635
5.890028 -10.118155 2.3019342
3.7660093 -12.235325 2.475409
2.3125622 -12.159557 2.4692311
4.0023518 -12.022074 2.4569991
4.2616005 -11.77914 2.4359725
4.639081 -11.54492 2.4314194
4.9902616 -12.770256 2.5122519
