# .PCD v0.7 - Point Cloud Data file format
VERSION 0.7
FIELDS x y z
SIZE 4 4 4
TYPE F F F
COUNT 1 1 1
WIDTH 61
HEIGHT 1
VIEWPOINT 0 0 0 1 0 0 0
POINTS 61
DATA ascii
5.0852842 -14.045441 -4.8019443
4.9980125 -13.910109 -4.7361355
3.5061393 -11.358311 -3.4675345
-9.6704226 -7.2838244 -3.1716528
-9.3447952 -7.2505083 -3.0849464
-7.6664696 -7.4996662 -2.9562962
-8.6155968 -7.1622753 -2.9164963
-9.7309074 -6.9785442 -2.9882579
-9.4423676 -6.9889212 -2.9370775
1.7549303 -9.9116631 -2.8895955
-8.9721994 -7.0216141 -2.8849177
-9.2387943 -6.800962 -2.7959015
-7.518405 -7.0891051 -2.6919253
-7.8043113 -6.9523916 -2.653791
3.285358 -9.045517 -2.1321831
4.9591789 -9.3764439 -2.0500031
3.7967713 -9.1063814 -2.0865314
0.89273012 -8.2491503 -2.0298252
-6.6965418 -6.1607113 -2.0234337
4.6584749 -9.1842709 -1.9806606
4.8097634 -8.7468681 -1.7013271
1.8221174 -7.8814569 -1.6607214
-2.6436017 -6.5225945 -1.5663073
4.141716 -8.1497841 -1.4508427
3.0886731 -7.828279 -1.425288
2.7285366 -7.7319794 -1.4369028
-6.2140379 -5.3826494 -1.4771135
5.7736635 -8.3329802 -1.3009423
3.8768611 -7.9100833 -1.3496152
1.3676184 -7.0420685 -1.2504799
-4.2372155 -5.5401168 -1.2548996
-5.4956369 -5.1772385 -1.2407609
-9.3370667 -4.2082987 -1.2823799
-4.3129711 -5.2843986 -1.1004722
-6.4736786 -4.8217864 -1.176654
-2.7942312 -5.2993746 -0.86160403
-3.2749846 -5.1628351 -0.86916274
-3.0942836 -5.1908298 -0.86213958
-5.7436295 -0.99060488 1.215555
-1.3869755 -1.3371036 1.7071619
-8.1956596 0.54610932 1.7429737
4.2395458 -2.6203589 1.8611956
-1.420553 -1.1264684 1.8326888
-3.2100921 -0.030176222 2.2036402
8.220314 -2.9307985 2.3034194
-6.9645033 1.4293593 2.4669161
6.4506631 -1.6176194 2.7985945
4.7214928 -1.2089539 2.7649522
4.9701037 -1.2847731 2.7694857
5.0379133 -1.2863402 2.7796078
4.0574679 -1.0709367 2.7586522
3.3786526 -0.95565724 2.7107985
3.4506264 -0.92431545 2.7433982
-5.9472637 1.6397471 2.7494099
6.4795938 -1.5449598 2.8484979
-6.6331801 2.121232 2.9392691
8.5652065 -1.7284217 3.0895114
6.647223 -1.0413238 3.1872013
7.5258427 -1.1252711 3.2796741
7.1717091 -1.0812168 3.2371411
6.5963016 -0.98294991 3.2039096
