# .PCD v0.7 - Point Cloud Data file format
VERSION 0.7
FIELDS x y z
SIZE 4 4 4
TYPE F F F
COUNT 1 1 1
WIDTH 150
HEIGHT 1
VIEWPOINT 0 0 0 1 0 0 0
POINTS 150
DATA ascii
-5.6742315 -0.58630258 -1.3176903
-2.9566505 -1.1428967 -1.2240087
-5.1131105 -0.70742333 -1.2985196
-3.8590851 -0.93920231 -0.90790606
-2.8370118 -1.1192608 -0.53759307
-5.8560171 -0.50011975 -0.53718358
4.0866175 -2.5045257 -0.40711561
4.2545824 -2.552321 -0.4217701
2.1637568 -2.1276374 -0.45583707
3.2493227 -2.3433404 -0.33457941
2.6977029 -2.2221375 -0.32960954
2.1215901 -2.1098533 -0.35625368
-2.6854992 -1.1231325 -0.3384425
1.0664263 -1.884434 -0.29370439
-1.7249446 -1.3133619 -0.29032582
-3.062902 -1.050112 -0.23752573
-5.1169314 -0.62560225 -0.16004913
-4.9239264 -0.66128027 -0.11610758
-5.8805013 -0.47122037 -0.11099198
1.6228806 -1.9780653 -0.066938207
0.48332438 -1.7460272 -0.048674375
-1.8513806 -1.2828003 -0.050406061
-5.2591395 -0.59145463 -0.029134195
4.0448823 -2.4731762 0.055322926
1.3095925 -1.9032238 0.064054258
1.5460359 -1.9497778 0.084687531
1.6099545 -1.9811294 0.060396239
-0.66296768 -1.5035245 0.093098521
-0.91142392 -1.4500141 0.097108908
-7.4602418 -0.12146001 0.07097321
3.2561703 -2.2949836 0.11402909
0.52552736 -1.7400281 0.13037148
-0.033007488 -1.6293738 0.11769466
-1.3415995 -1.3645271 0.13053802
-1.8907402 -1.2550771 0.16540635
-5.4982524 -0.51397282 0.17896768
1.6379275 -1.9620115 0.28731358
-1.4747558 -1.3368835 0.28283077
-1.2286191 -1.3805829 0.23379548
-5.1677871 -0.59157825 0.2167733
1.0766566 -1.8533072 0.32879493
0.31334445 -1.6840482 0.31353784
-4.6733866 -0.67661256 0.32987973
-8.4576273 0.10773928 0.48597875
0.88119173 -1.7829252 0.52487832
-0.62852061 -1.4864275 0.52043813
-6.522481 -0.2826615 0.55487823
5.7016234 -2.7635746 0.65238923
0.5047015 -1.7120866 0.65701723
0.74034435 -1.7416127 0.6952635
0.29582134 -1.6552523 0.68644142
-4.4654484 -0.68328136 0.69715279
0.92006397 -1.7779346 0.72690707
-5.0703564 -0.56237841 0.71709144
-6.506484 -0.27375829 0.70711541
-7.2734113 -0.110759 0.74209279
-7.7781234 -0.0068775304 0.72226793
-7.4852896 -0.074411154 0.73651624
0.66039562 -1.7196379 0.87406874
1.0009067 -1.7971933 0.89144325
-5.8622789 -0.3931925 0.83774507
-4.7452664 -0.61404282 0.95553273
-6.2830338 -0.3169719 0.90570974
-7.3108587 -0.095716134 0.92886913
-4.7118244 -0.60700023 1.0769782
-7.3569551 -0.082455128 1.0641797
4.0545111 -2.3806331 1.1355627
2.0536761 -1.9887354 1.182634
0.87030774 -1.7428374 1.104756
-5.5685878 -0.43453446 1.1235244
-7.1431923 -0.10907014 1.1753973
2.675288 -2.1059833 1.2965767
1.0728204 -1.7703149 1.2816885
0.34445298 -1.6277425 1.2747858
-5.1175137 -0.50724852 1.2845991
-6.8903065 -0.14791659 1.286845
-8.555275 0.18294251 1.2897112
7.8329172 -3.1347322 1.37783
6.8788338 -2.9564028 1.3483676
7.0591016 -2.9809375 1.3779088
5.9768944 -2.7609675 1.3639657
6.0910559 -2.7864287 1.3589259
5.3411355 -2.6443205 1.3118054
5.1096129 -2.578697 1.3454744
3.9068456 -2.344008 1.341439
4.0719938 -2.3863804 1.3313868
2.5325453 -2.0627866 1.3171993
7.4451852 -3.0537574 1.4196677
6.8559365 -2.9333618 1.4225049
-6.1542788 -0.29858184 1.4183567
-4.2512689 -0.65295035 1.7908326
-4.7011862 -0.57358956 1.7770631
-5.7113714 -0.3675347 1.7248851
-7.3035259 -0.041245751 1.7670528
2.2451301 -1.9648379 1.8972226
1.2755892 -1.778941 1.8680172
-6.116221 -0.2678456 1.8220513
-6.9114819 -0.10558764 1.8270637
-8.0288067 0.11572096 1.8290609
6.7745881 -2.8900027 1.9801375
4.3091516 -2.3869367 1.9678192
3.8747942 -2.2900739 1.9469149
3.3321033 -2.1789188 1.9520532
1.6710031 -1.846437 1.9113324
5.2618237 -2.5730762 2.0657825
3.7457695 -2.2537701 2.0769072
3.9088039 -2.2997398 2.0652311
1.3807765 -1.7850835 2.0880184
0.86394024 -1.6817333 2.0045021
-6.8669009 -0.1068735 2.0854499
6.3047686 -2.773756 2.1343994
4.2872143 -2.3654141 2.115633
3.0916357 -2.1204588 2.1299787
3.2542858 -2.1496615 2.1500001
2.1362703 -1.9218892 2.13679
2.2045891 -1.9423003 2.1017852
1.7528567 -1.8437717 2.1151605
1.8665974 -1.8693933 2.1515207
1.1212327 -1.7178345 2.1076818
-3.8355749 -0.7107864 2.1786973
4.2972217 -2.356988 2.2345128
3.7881861 -2.250463 2.2508316
4.0464153 -2.2983205 2.2873621
3.1011205 -2.1133764 2.2537694
2.1048059 -1.901437 2.2914126
2.4727342 -1.9790883 2.293561
1.7677405 -1.835736 2.2857714
3.8847466 -2.2777002 2.3108406
2.6689005 -2.0124626 2.365917
7.7926164 -3.0509424 2.4678302
6.6996069 -2.8366747 2.4861627
5.350317 -2.5464969 2.4686534
4.1592407 -2.3085256 2.4654169
3.5203364 -2.1860549 2.4953489
7.0919371 -2.9079723 2.5039511
7.3366914 -2.9638662 2.5020773
4.2462945 -2.3367524 2.5186238
3.9173613 -2.2664382 2.5346808
1.7503674 -1.8119781 2.5531788
-5.7734771 -0.2968466 2.5809677
8.1322155 -3.0982251 2.6602023
4.9900427 -2.4611087 2.665447
2.4584947 -1.9469457 2.6872416
-6.1666937 -0.20682427 2.6749144
8.1412621 -3.0878325 2.8767562
7.4331322 -2.9553807 2.8775511
-8.361166 0.261985 2.8863473
4.7305188 -2.4042664 2.9168103
7.9384313 -3.0457084 3.0091002
8.1140757 -3.0722797 3.0047638
