# .PCD v0.7 - Point Cloud Data file format
VERSION 0.7
FIELDS x y z
SIZE 4 4 4
TYPE F F F
COUNT 1 1 1
WIDTH 125
HEIGHT 1
VIEWPOINT 0 0 0 1 0 0 0
POINTS 125
DATA ascii
6.7545424 -1.9051539 -0.50003147
8.2308578 -0.48501724 -0.50229883
5.8646202 1.5656991 -0.50081092
8.9495783 2.5599523 -0.50161278
10.057137 5.9676571 -0.50596714
4.0627007 6.9622393 -0.50280058
12.944209 8.1924782 -0.50376111
12.685345 8.2316389 -0.50297832
8.3030853 9.2083302 -0.50647366
2.0129399 -2.4160583 -0.48302081
6.6510153 -2.3038912 -0.48950475
2.7335629 -2.2267013 -0.48341569
3.4042263 -2.2072062 -0.48472092
6.555284 -2.2702215 -0.49589047
6.2714596 -2.1852438 -0.48383057
6.6859369 -2.170433 -0.482555
2.6546538 -2.0752292 -0.48498252
4.2351036 -2.0812726 -0.48006022
5.1650829 -2.0899944 -0.49359787
0.3874684 -1.9243581 -0.48851848
2.2981825 -1.9176483 -0.48032501
2.449461 -1.9327033 -0.48639295
3.8606286 -1.9192123 -0.48898989
4.847487 -1.998919 -0.48626778
1.4830426 -1.8571306 -0.47737268
2.1142838 -1.88802 -0.47992352
2.9415145 -1.8729367 -0.48349896
3.0201488 -1.8668824 -0.48617715
2.1281967 -1.7248812 -0.49603337
2.2733164 -1.7305462 -0.48119035
2.4791403 -1.759276 -0.49184799
3.7688344 -1.7843659 -0.48798954
3.8024306 -1.7876854 -0.4810828
6.7535992 -1.7792132 -0.49743676
4.4412246 -1.5706133 -0.49923089
-1.0814031 -1.4599062 -0.47620827
-1.240556 -1.3125474 -0.48999196
8.2834091 -1.3027961 -0.48544163
-2.517581 -1.2459345 -0.4821111
-2.0433984 -1.2612104 -0.48971674
-1.825997 -1.2873532 -0.48714814
1.0180138 -1.275771 -0.47747654
6.9602022 -1.2940856 -0.49172482
7.0241013 -1.2496595 -0.48540339
-2.6851866 -1.1001674 -0.4849866
-1.1322279 -1.0430152 -0.48040134
-0.11246637 -1.0768479 -0.48954847
-0.96167511 -0.93421888 -0.47840214
-4.5314379 -0.87123811 -0.48892832
-3.3409283 -0.89464164 -0.48161682
-1.6867619 -0.89342749 -0.47736627
-4.94207 -0.72795904 -0.47445834
-2.714488 -0.77300942 -0.48220396
8.5804844 -0.70043969 -0.48622131
-5.6828008 -0.6742965 -0.48437947
-5.0593081 -0.66369635 -0.48858762
-2.3162963 -0.528404 -0.49138147
-3.8722591 -0.46201324 -0.48284027
-5.8488183 -0.36299276 -0.47776031
-7.0524817 -0.016150028 -0.47460878
-4.0361524 -0.073273838 -0.47913188
5.4449434 -0.088618964 -0.4975453
-4.5684977 0.087244391 -0.48016435
2.7041872 0.28658628 -0.49046826
5.3193221 0.25155732 -0.48838982
-8.580761 0.30389172 -0.48022595
0.68341798 0.3687098 -0.48266023
2.2814221 0.38332668 -0.48884234
5.7400432 0.34279883 -0.49759173
6.4959221 0.38999432 -0.49830881
5.176445 0.45060253 -0.48450601
5.2524424 0.45639509 -0.49264085
1.4105253 0.53721738 -0.48864684
4.6292934 0.57397646 -0.48254907
6.6079407 0.52175188 -0.49089509
-3.4877572 0.65634018 -0.48672974
3.4955325 0.68419051 -0.49748486
3.099678 0.71649212 -0.48942351
-8.6283407 0.89190304 -0.47408164
-3.73487 0.9521547 -0.47748631
-3.4375546 0.93816894 -0.48392621
2.7288172 0.91435373 -0.48016718
3.8666325 1.2377281 -0.49067941
4.0535026 1.2749207 -0.49035379
-2.9684582 1.3599989 -0.47720832
1.5297152 1.382427 -0.47992018
3.3482859 1.3161304 -0.48130909
-8.4340115 1.4702694 -0.48637789
0.93142593 1.454095 -0.48741964
2.6971271 1.4396938 -0.49679348
0.33009541 1.5545547 -0.49141341
-6.189136 1.6623057 -0.48230451
-2.965786 1.6820009 -0.48093522
0.075744592 1.631758 -0.48366219
0.65531754 1.6064191 -0.49567223
-3.3552439 1.9020151 -0.47790438
2.7130444 1.9065044 -0.48918906
-8.4028206 2.0478745 -0.47576308
-1.2592673 2.0388181 -0.4878068
1.6116657 2.1823859 -0.49126151
8.8624077 2.134712 -0.49876314
0.6485545 2.3308442 -0.48661137
1.7239425 2.506216 -0.48103702
-5.8984022 3.3209829 -0.48279697
-8.0749168 3.4753165 -0.48174125
-5.232338 3.5313811 -0.47464436
-5.4732275 3.6422017 -0.48229057
-5.3076472 3.671186 -0.48223943
5.2588263 3.7868035 -0.49776262
9.6346426 3.7567005 -0.49790454
5.6747108 4.2982073 -0.4866662
-7.7378411 4.5648184 -0.48937392
-4.1233206 4.6281366 -0.48658907
-7.3321629 4.7229514 -0.48022741
-7.7145066 4.82337 -0.48311538
-3.7723818 4.801558 -0.4802801
9.8458138 5.2527122 -0.49299067
-3.1421452 5.4388199 -0.48675799
-3.1115143 5.6237268 -0.48238519
-2.9522414 5.6468997 -0.48117378
5.6757288 6.1462889 -0.49845922
5.4570761 6.2139845 -0.48680842
6.8282032 6.4302011 -0.48844394
1.6544256 7.9695096 -0.49383259
2.4009924 10.424448 -0.49223441
