# .PCD v0.7 - Point Cloud Data file format
VERSION 0.7
FIELDS x y z
SIZE 4 4 4
TYPE F F F
COUNT 1 1 1
WIDTH 64
HEIGHT 1
VIEWPOINT 0 0 0 1 0 0 0
POINTS 64
DATA ascii
0.031878352 10.869663 -1.2625456
2.0825939 10.421242 -1.1236131
-2.182205 7.7318649 -1.0202746
-2.6915078 7.8800354 -1.0649807
-2.2547851 7.8254738 -1.0314699
-5.7295675 6.0277863 -0.9930774
-1.0791296 7.4873781 -0.94621491
-0.70256376 7.7155457 -0.95661354
-8.038744 3.7093959 -0.85454184
-2.8954189 6.0688448 -0.87422031
-6.7095814 3.3600848 -0.75115401
4.6664886 6.430119 -0.61268294
-8.283844 0.46949914 -0.5321101
-3.6512778 2.8469546 -0.58858269
6.0330443 6.0483341 -0.52009153
7.6031504 6.7133923 -0.52379727
-7.8424597 0.3557595 -0.49118787
-3.9121773 1.1267974 -0.415878
8.3655682 6.6041899 -0.46772248
8.434041 6.6198421 -0.47326082
-6.7550983 -0.20751703 -0.39653617
-3.8409381 0.29988188 -0.32142049
-3.6070473 0.61821151 -0.34744957
-3.8860002 0.97125864 -0.39636713
-3.700748 0.9806602 -0.3813245
-3.1198869 0.9613561 -0.35783136
0.56760585 1.8692338 -0.30521783
1.551414 2.1837592 -0.30018488
1.7385592 2.5715466 -0.32031465
1.8060466 2.503552 -0.31628561
10.051188 5.9808064 -0.33093214
-3.8831792 -0.30622238 -0.26278454
-3.5410111 -0.3511126 -0.2505784
-3.7360876 -0.10268575 -0.27458951
-3.6420975 0.13829555 -0.29742175
0.84321308 1.4257725 -0.2406162
0.51775491 1.5710206 -0.28409624
2.5446801 1.6564252 -0.20040235
1.5593239 2.2130022 -0.29976317
5.4529858 3.075182 -0.22541647
-1.8109634 -0.8718673 -0.10928791
-2.4577644 -0.74700487 -0.16457066
0.16211009 0.46727556 -0.17100468
1.1096931 0.50999534 -0.13927786
3.5020685 1.4107184 -0.14037023
-0.72119129 -1.1470356 -0.041818798
-0.26233649 -1.1874113 -0.017160086
-1.1410377 -0.90487611 -0.077295244
9.600276 3.5101993 -0.099039331
-0.53603327 -1.8620391 0.030858966
-0.11116374 -1.5142775 0.027429935
7.8252487 0.12246784 0.17587487
3.279737 -2.51017 0.25628197
3.6557472 -2.5757461 0.29067907
3.8440204 -2.5667825 0.29791665
7.7996178 -0.23415136 0.22236209
4.8563957 -3.1651473 0.38798884
4.7984147 -2.4010143 0.32414776
4.8162489 -2.405807 0.30908126
4.7613955 -2.3539705 0.3069818
6.4501486 -2.986167 0.44494313
8.2709713 -2.736372 0.49263471
1.4320621 -11.235115 1.098017
5.3466377 -15.535543 1.7052441
