# .PCD v0.7 - Point Cloud Data file format
VERSION 0.7
FIELDS x y z
SIZE 4 4 4
TYPE F F F
COUNT 1 1 1
WIDTH 140
HEIGHT 1
VIEWPOINT 0 0 0 1 0 0 0
POINTS 140
DATA ascii
4.4356966 10.073723 -1.1340724
-0.65568876 7.311018 -1.0016365
-6.7438955 7.537034 -1.0507208
-1.7477173 7.6912537 -1.0276967
-2.2060072 7.7369061 -1.0363628
0.92789268 7.8922167 -1.0161393
-5.3109083 5.446558 -0.93523633
-5.6178331 5.5423231 -0.93444693
4.0761585 6.2791424 -0.90443552
3.4377983 6.4265194 -0.92959279
1.7159401 7.3899217 -0.98194951
2.8861885 7.3429322 -0.98831826
1.383471 7.4155746 -0.99881947
-5.4174843 3.1763031 -0.80002624
-5.0612502 3.1871219 -0.80126637
-6.6757188 3.3617337 -0.81118912
-8.0712376 3.4924309 -0.83151805
-7.0026236 3.4489501 -0.81428468
-5.0317659 3.4950402 -0.81060094
-5.3980246 3.6793582 -0.82710612
-3.244266 4.4721193 -0.85255754
-4.1975775 4.5500379 -0.86864495
-3.2038336 4.8771367 -0.87656367
5.8560214 5.4089823 -0.84791523
6.1120176 5.8446894 -0.86826569
-7.6442404 1.4757932 -0.70469272
-7.5419168 1.5189151 -0.70264816
-7.5462594 1.6296234 -0.71836472
-5.7786741 1.6972767 -0.7100445
-2.8833814 2.0653765 -0.71361417
-2.7806036 2.2893841 -0.72679538
-7.5015354 2.3749111 -0.7638067
-7.63413 2.4080586 -0.7574749
0.25115195 2.4742246 -0.71290821
-2.5024459 2.8630958 -0.75593102
-2.3680737 3.168036 -0.78108424
-3.5708983 3.2342377 -0.79087245
5.2882214 3.3787186 -0.73285824
9.1074295 3.5398657 -0.71672571
8.8709908 3.6740413 -0.72122526
-6.8425083 0.18552589 -0.62383509
-3.532361 0.6216076 -0.63147116
-3.1473167 0.72467518 -0.63971817
-8.6346607 0.88459325 -0.68659025
3.0484233 0.8707943 -0.60478878
-6.6477919 0.9671945 -0.66328901
-7.2712927 1.0440781 -0.67938793
-7.10781 1.0898969 -0.68522274
3.8967998 1.1746826 -0.60212994
4.4891329 1.1648322 -0.6128329
-2.763752 1.2759103 -0.66031122
-6.1055965 1.3710938 -0.69090652
0.57155848 1.3358639 -0.65286154
4.4472055 1.3247967 -0.60650778
-2.9740086 1.4242824 -0.67564774
1.2776374 1.4515224 -0.65525806
1.5440817 1.5082659 -0.64285576
5.6279759 1.578333 -0.62613666
0.11837721 1.6979667 -0.67030591
0.72973752 1.6790848 -0.66565675
4.6412969 1.6460303 -0.62536061
5.5465703 1.635057 -0.62867653
-0.43927965 1.7685729 -0.67624772
-0.70453387 1.8907986 -0.68162704
-0.54210573 1.8311177 -0.67291433
0.18365794 1.8504776 -0.68607962
0.50334537 1.8305646 -0.67781901
2.8719349 1.8657417 -0.65878212
-1.2942773 1.9563338 -0.68590546
0.25939316 2.0853722 -0.68265975
0.66876411 2.1058331 -0.69005138
0.87740135 2.2657223 -0.68953437
1.8112442 2.4801991 -0.69465053
-2.5391479 -1.0826697 -0.52362615
-2.0884619 -1.0614213 -0.52804279
-0.92657137 -1.0302775 -0.51984984
-0.52481508 -1.0749224 -0.50640166
-1.3432381 -0.86013067 -0.52109039
-0.73173434 -0.86155206 -0.52352309
-1.4953333 -0.76471019 -0.53403795
-3.6977501 -0.69261324 -0.55805677
-3.4714603 -0.64943886 -0.55091292
-0.90907305 -0.6985842 -0.54469216
-1.0604351 -0.53250051 -0.55166209
-0.88078737 -0.56380218 -0.54449213
-2.4944696 -0.47169161 -0.55245066
-3.5448387 -0.31985065 -0.57413173
-2.7434869 -0.35150772 -0.57084429
-2.1409931 -0.37634608 -0.55521625
4.4560237 -0.38109714 -0.51453304
-3.2937717 -0.27216116 -0.57745427
-2.5417814 -0.28225732 -0.57556492
-2.315443 -0.27359036 -0.56964308
-3.4927437 -0.11685106 -0.58385533
-3.3314419 -0.14889392 -0.58699286
-3.1471112 -0.10165513 -0.59241152
-2.9483204 -0.12125934 -0.58476555
-2.543879 -0.18515474 -0.5730837
7.6314979 -0.019917618 -0.519903
7.8594604 0.094933353 -0.52128381
3.8509951 0.18821493 -0.54950124
4.3582859 0.15420857 -0.55771565
4.4518757 0.13255572 -0.53965914
3.8473523 0.22668236 -0.55127114
4.4259615 0.24608587 -0.54525375
4.8957253 0.39824891 -0.55929911
6.5901442 0.52922893 -0.56220484
2.1486793 0.60712993 -0.59761548
6.6718702 0.83399034 -0.57373196
8.8914633 1.1312075 -0.5835526
9.0060854 1.3899889 -0.59161133
3.2276156 -2.4132483 -0.40603924
3.2225928 -2.37432 -0.40946382
4.6476984 -2.3189025 -0.41112995
2.1214943 -2.2194591 -0.43384108
3.1257401 -2.2795868 -0.41247505
6.4777346 -2.192157 -0.40156201
1.1453835 -1.9627609 -0.43902507
0.96529722 -1.8784525 -0.44575012
0.51017511 -1.766598 -0.46070707
7.0134501 -1.7615221 -0.42034531
-0.091351502 -1.6609123 -0.47648731
-0.15399794 -1.5020182 -0.47510576
0.10426975 -1.5010848 -0.48769546
-1.1118119 -1.3100384 -0.49856037
0.046819955 -1.2398045 -0.487955
0.96861511 -1.273386 -0.48568171
0.94637465 -1.0555497 -0.49399817
8.7068825 -0.8651824 -0.44967037
8.7081432 -0.70151502 -0.46249303
8.1177959 -3.3025675 -0.32940978
4.3547673 -2.6183901 -0.39498594
4.6171932 -2.6482606 -0.377653
3.749681 -2.4864733 -0.39019173
3.948205 -2.4892724 -0.39209324
4.0781059 -2.4663844 -0.38721961
5.6861033 -2.3332634 -0.38577327
6.9839025 -2.3161483 -0.39041007
7.0430188 -2.291172 -0.38394362
6.3692083 -2.19346 -0.39135522
