# .PCD v0.7 - Point Cloud Data file format
VERSION 0.7
FIELDS x y z
SIZE 4 4 4
TYPE F F F
COUNT 1 1 1
WIDTH 553
HEIGHT 1
VIEWPOINT 0 0 0 1 0 0 0
POINTS 553
DATA ascii
-12.069304 23.386301 -0.1659447
6.7397952 15.352917 0.39599666
-4.5678129 8.2928476 0.88865155
-5.3691654 8.4927435 0.86956078
-5.136776 8.420723 0.87148023
-4.8644361 8.4529629 0.88481325
-4.6925106 8.5023966 0.87647176
-3.8924088 8.533329 0.88042343
-3.666513 8.5096378 0.87667966
-3.4497633 8.5617285 0.87080419
-6.7911024 8.6491203 0.86203957
-6.2304087 8.6839275 0.86992705
-4.8730178 8.6542015 0.86107832
-4.550539 8.6664257 0.86985248
-4.2402792 8.6760406 0.85865593
-6.8028951 8.7266502 0.86641139
-3.7903295 8.7758341 0.85493755
-6.0325322 8.8698597 0.84257585
-5.0540972 8.875783 0.84270215
-4.680131 8.9600258 0.83735991
-4.8718381 9.0985765 0.82783848
-3.7523961 9.0375919 0.82782763
-3.556006 9.0576687 0.84239578
-5.9035354 9.2623844 0.82080501
-4.0410199 9.215229 0.82660407
-6.8370152 9.3050003 0.81326604
-5.54951 9.3265753 0.82207489
-5.0010982 9.3919535 0.8176589
-4.6431551 9.3167419 0.8196975
-5.8924847 9.4747734 0.80099487
-5.1467886 9.4441843 0.80040944
-7.4144182 6.6934867 0.99990076
-2.2418687 6.6482763 0.99946189
-6.1690516 6.7089987 0.99401891
-4.1270914 6.7356005 0.99429798
-3.812196 6.7109318 0.99379343
2.8710234 6.7628069 0.99298704
8.132 6.7580004 0.98609674
-6.9779458 6.8609934 0.98324758
-5.61796 6.89255 0.99800462
-3.4462061 6.8886738 0.99046779
-1.3568811 6.8306637 0.98382974
1.5867114 6.8312726 0.98742634
3.2561684 6.8889971 0.9812842
3.9628675 6.8983536 0.9924953
-5.0408859 6.9200449 0.99194884
-3.7487323 6.9034548 0.99065995
-7.1171322 7.0487289 0.97948211
-6.2773104 7.0606899 0.97275442
-5.0723467 7.0474453 0.97253573
-4.6263609 7.0359926 0.97831464
-3.8891015 7.0333667 0.98426813
-3.677568 7.086339 0.9729954
-0.35789037 7.1581397 0.96658796
-7.1991506 7.2960315 0.96103311
-4.9290152 7.2666407 0.96307445
-1.3688165 7.2617583 0.96627283
-1.0984161 7.2744598 0.95559072
-6.3037004 7.3006339 0.95049107
-4.5980749 7.3310742 0.96575737
-3.4375169 7.333602 0.96578109
-3.0827184 7.3980699 0.95517355
-7.0661077 7.4320664 0.95375967
-5.2543306 7.4606924 0.95473266
-4.218111 7.445971 0.9404012
-3.0701084 7.440661 0.9485966
-0.2375412 7.4711165 0.95467079
-5.7038069 7.5539331 0.93871796
-4.8926764 7.556499 0.93800914
-4.0756264 7.5809698 0.93885124
-3.7076058 7.5167332 0.94885421
-6.7774324 7.6154313 0.93252677
-6.3488131 7.6523843 0.93531048
-5.6523285 7.6752415 0.94108725
-4.9184008 7.6989412 0.92588848
-4.5097914 7.6693029 0.93182528
-4.2373362 7.6832495 0.92525446
-4.1754322 7.694881 0.92619944
-3.607626 7.6576834 0.93642247
-3.0318789 7.6811252 0.94093704
-1.3510275 7.6880198 0.92407805
-5.8359008 7.752069 0.92203009
-5.5265017 7.737319 0.92254925
-5.3470898 7.7563148 0.92774135
-5.0418134 7.7421393 0.92541909
-4.6762581 7.7573729 0.92666411
-3.5704257 7.7217722 0.93262941
-2.6515503 7.7737427 0.92346793
-5.5034232 7.8859162 0.90987122
-5.262042 7.8229928 0.92192185
-4.1807218 7.879693 0.91568625
-3.8549402 7.8006897 0.91860354
-3.4964509 7.820116 0.91788989
-6.2513819 7.9065733 0.92422181
-4.8269968 7.9227424 0.91401374
-4.7136269 7.9240818 0.92330384
-3.2886519 7.9494419 0.91015857
-2.7344427 7.929801 0.91971576
-6.3413768 8.0917377 0.90329218
-4.7696667 8.081356 0.90184361
-4.1153154 8.0663147 0.90275252
-4.8154516 8.1090431 0.90883029
-4.2355795 8.2295399 0.9039492
-5.1346512 5.2232389 1.0980396
3.9081969 5.2569857 1.0986245
7.560317 5.2940311 1.0936394
9.4105415 5.2727151 1.0949371
-6.7277575 5.3014498 1.0955136
-5.4792652 5.3048944 1.0948877
-4.049211 5.3339939 1.095032
4.459094 5.390511 1.0874512
6.2715569 5.3526487 1.0913813
6.6288095 5.3323622 1.096508
6.9347906 5.365448 1.0980349
7.0764709 5.3613229 1.0992109
7.2852821 5.3107777 1.0978136
8.1469688 5.3167343 1.0919034
-5.5288801 5.4499912 1.0914352
-2.4734058 5.491951 1.0872493
3.0635555 5.423142 1.0930738
3.7645433 5.4915762 1.0822928
5.6334219 5.4610271 1.0868092
6.2784986 5.4624763 1.0784758
6.6509991 5.4117804 1.0798372
8.3256035 5.4882655 1.0795693
8.7179585 5.493463 1.0744888
8.9272013 5.4524412 1.0809109
-6.5487862 5.5061865 1.0960689
-1.4461429 5.5286865 1.0891778
9.6733675 5.5726461 1.0681576
-7.6327829 5.6588621 1.0774653
-5.2987299 5.6892767 1.0695487
-4.4886107 5.6970177 1.0746614
-4.0685596 5.6739068 1.0748441
-2.7228971 5.6941895 1.0740466
-2.2942128 5.6806822 1.0746915
-1.7543614 5.6217427 1.0795709
-0.14288437 5.6395798 1.0691106
3.8162177 5.6180315 1.0769784
7.5973253 5.686141 1.0609117
8.5493584 5.6989622 1.0673203
9.0839577 5.6946864 1.0761211
9.7036133 5.6947598 1.0651174
-6.6644144 5.7089996 1.0685788
-3.9259167 5.7217312 1.0760508
-3.1049504 5.757504 1.0762036
-1.4620547 5.7090592 1.0612097
3.7659101 5.7693758 1.0645354
4.724318 5.7843561 1.0698354
5.738523 5.7017231 1.05934
6.227931 5.7940502 1.0549953
7.1006575 5.7210298 1.0704089
7.7453375 5.7569242 1.0704656
8.9495077 5.7340326 1.0597408
-3.9418349 5.8827491 1.0646782
1.2891871 5.8262029 1.0644457
4.5229502 5.8814182 1.0488429
5.7782798 5.8118315 1.062354
8.1707249 5.8412733 1.0573345
8.6019106 5.8552642 1.0662326
-7.0455818 5.9029961 1.0610923
-5.9251218 5.9307518 1.0536227
-4.2916546 5.926898 1.0651946
-2.6712785 5.9097199 1.0578701
-2.3262439 5.9406075 1.0638878
4.1062813 5.9687719 1.0535388
9.4171305 5.9572363 1.0477349
-6.2983713 6.0877628 1.0456007
-4.5167856 6.0664797 1.044199
-2.9335809 6.0750475 1.0470104
-2.6813412 6.062314 1.048959
2.6131012 6.0914903 1.0432093
3.3241177 6.0914078 1.041223
3.5730112 6.0843229 1.0406088
7.7655363 6.0982485 1.0362682
-7.113615 6.1151533 1.053827
-6.4545908 6.1311445 1.0374615
-5.9018536 6.1113901 1.0343431
-5.2247863 6.11445 1.0463786
-5.0972128 6.1765585 1.0381054
-4.1550264 6.1445446 1.0451685
-3.8930595 6.1427259 1.036953
-3.2538157 6.1360359 1.0391772
-3.1436124 6.1249413 1.0463605
-2.5814781 6.1474047 1.0398088
1.7549427 6.1056519 1.0425488
3.8486948 6.1121178 1.0391209
6.1175985 6.1039591 1.0338891
6.5734468 6.1164069 1.0345591
8.4857063 6.1443691 1.0316108
-6.6619902 6.2988853 1.0226274
-3.8939321 6.2432337 1.0346462
-3.7016377 6.2242136 1.0267642
-3.4303055 6.2003493 1.0468342
-2.598541 6.2438288 1.038156
-2.0794616 6.2109175 1.0457914
3.8652368 6.2622514 1.022063
7.2335558 6.2530942 1.0306399
7.4880571 6.2617698 1.0237157
7.764451 6.2687154 1.022307
7.8314266 6.2440023 1.0225747
8.1598501 6.2736487 1.0347233
8.5401039 6.2945409 1.0317727
-6.262002 6.3328176 1.0316751
-6.1413574 6.3202772 1.0340743
-4.5294228 6.3217297 1.0248439
-4.3216982 6.3180828 1.0266085
2.1838186 6.3331017 1.0196342
5.1308365 6.3187585 1.0181153
6.2342978 6.3435926 1.0188329
8.3563013 6.3558588 1.0243697
9.104228 6.3780785 1.0175546
9.7912264 6.3737869 1.0274049
10.038519 6.3177586 1.0178502
-7.0631218 6.4228735 1.0295104
-6.9325719 6.4751129 1.0243496
-6.6331024 6.4746828 1.0280929
-5.0722742 6.4754782 1.0280406
-4.866415 6.4342446 1.022717
-4.6678419 6.4654903 1.0234753
-4.5225725 6.4992371 1.0245872
2.1851988 6.4259906 1.0116646
2.7013092 6.4848986 1.0224221
4.7885318 6.4130168 1.0164324
4.8703375 6.4216833 1.0093886
9.1832104 6.4943295 1.0057557
-5.8474164 6.5165749 1.012323
-5.4983573 6.5689583 1.0144247
-5.3621173 6.5281591 1.0177417
-3.8387518 6.5011997 1.0154824
-3.7805467 6.5467081 1.0093837
-3.0919304 6.5766692 1.0015398
-1.1713458 6.583765 1.0134681
0.95765924 6.5619192 1.0038522
3.6830599 6.5801191 1.0100939
3.9164979 6.5633688 1.0089476
4.2995586 6.5228629 1.0216415
7.3389549 6.512784 1.0063255
7.7648096 6.5819969 1.0004401
7.863245 6.5831475 1.0152773
8.5989943 6.518218 1.0038987
-6.4694262 6.6283917 1.0131731
-5.9699631 6.6709213 1.0114548
-5.4531064 6.6882343 1.0054603
-3.8321939 6.6865931 1.0067568
-3.7480741 6.6658964 1.001088
-3.4504843 6.6122417 1.0113871
-2.5590351 6.6260686 1.0132377
3.0995798 6.6348262 1.0098972
3.3456223 6.6946745 1.0098429
7.8869934 6.6579943 1.0081649
8.8848639 6.6271639 1.0059886
-6.041821 6.729332 1.0074935
-5.6862469 6.7516828 1.0067984
-5.6336603 6.8095202 1.0038751
3.3852901 3.7910945 1.1959556
6.0191126 3.7641928 1.1958477
8.2898006 3.7786703 1.1942276
5.3254843 3.8918145 1.1879818
5.9386916 3.8717759 1.1920676
6.2386694 3.8931928 1.1966108
7.9471121 3.8557842 1.1895404
8.8603716 3.8905504 1.1942284
-0.12946767 3.9368448 1.1949127
2.9571159 3.9185696 1.190419
3.349606 3.9183707 1.1863304
3.8649006 3.9405215 1.1911552
4.2009077 3.9548812 1.1960847
4.7627811 3.9422534 1.1909943
5.0516181 3.9508219 1.1932552
5.4369698 3.907151 1.1918869
6.0575237 3.9421625 1.1879991
6.5712981 3.9350691 1.1936269
6.7704921 3.9910951 1.1892861
-2.7320476 4.0544825 1.1822426
-0.37459022 4.0940447 1.1869659
4.1728477 4.079895 1.1875116
6.9116592 4.0573149 1.1817691
7.0232964 4.066566 1.1833704
7.3222442 4.0847301 1.174987
8.6547337 4.0589886 1.1827289
-1.1951554 4.1953578 1.1842858
1.1011169 4.158062 1.1836543
1.3263698 4.1152821 1.1894989
1.4507166 4.1617994 1.172231
1.7213227 4.1640005 1.1701407
1.8661717 4.138504 1.1823491
2.2022913 4.1868019 1.1689421
2.9738624 4.1355472 1.1712884
3.4513719 4.1466103 1.1733966
4.339448 4.1079636 1.1866554
4.8540664 4.1609974 1.1874001
5.1022367 4.1667991 1.1728432
5.4162545 4.1616316 1.183244
5.7620149 4.1829805 1.1691777
6.0655036 4.1146884 1.1760087
6.2582088 4.1877933 1.1855726
6.5023775 4.1553206 1.1755482
6.7025533 4.1486626 1.1831417
7.4318328 4.1438408 1.1755412
8.5047626 4.1681523 1.1841151
-4.0821981 4.2791085 1.1813169
-3.9212515 4.2422409 1.1770067
-3.3030555 4.2915926 1.17224
-0.080892831 4.2895393 1.1757144
0.42622256 4.2504778 1.1780099
1.7235932 4.2981195 1.1594599
1.9157064 4.2442217 1.1780722
2.7881305 4.284677 1.1702447
3.9124324 4.2566662 1.1811028
4.7585697 4.2662973 1.1709554
5.8910875 4.2885294 1.1633891
6.2988601 4.2520638 1.1787562
7.3882647 4.2598372 1.1741915
7.7470226 4.2416902 1.1803963
8.1403236 4.2852793 1.1755729
9.0178537 4.2871518 1.1729727
9.3049059 4.2714982 1.1614392
9.4175653 4.2204943 1.1631577
-5.619 4.3712029 1.1707435
-3.6934242 4.3683019 1.1638739
-3.5508995 4.3562379 1.1678663
-2.305068 4.3342161 1.1751405
2.5519333 4.3027687 1.1749891
3.497766 4.3554106 1.1633477
4.8283153 4.3050718 1.1615745
5.3245239 4.3395395 1.1636976
5.6889024 4.3096786 1.164711
-4.9299021 4.4265051 1.1534926
-3.6977334 4.459517 1.1518092
-3.2764902 4.4715576 1.1663843
2.1197262 4.4036231 1.1580691
3.4997964 4.4801021 1.1556785
3.9132056 4.4232645 1.1553496
5.3101101 4.4858603 1.1485648
-6.4492416 4.5884976 1.1586932
-6.3077331 4.5622425 1.1440315
1.0450904 4.5369086 1.1610034
2.7449741 4.5200977 1.1613309
5.5719423 4.5059023 1.1481886
5.7504263 4.5316315 1.1520954
6.1373444 4.5331879 1.1552615
7.9137731 4.5626287 1.1440859
8.7463589 4.5172191 1.1576359
9.6841183 4.5028582 1.1504965
3.4898784 4.6544037 1.1477692
3.6794958 4.675148 1.142023
3.943671 4.6965256 1.1406729
5.7638512 4.6151814 1.155513
7.4903135 4.6854229 1.1396177
8.1734123 4.6663556 1.1484375
8.5110664 4.6530209 1.1488497
8.7522717 4.6656852 1.1447413
-5.3418713 4.7275624 1.1494246
-4.1332507 4.7619352 1.1452006
-1.6135209 4.7265663 1.1469634
-1.3475003 4.7967334 1.1362472
0.11472718 4.7201214 1.1483169
0.70196855 4.709475 1.1336832
1.5504634 4.7642484 1.1389233
6.1829023 4.7432752 1.1313102
6.2781258 4.7470713 1.1313984
-6.5067921 4.8443799 1.140803
-4.2065802 4.8527951 1.1408786
-2.2975717 4.8318882 1.136246
-1.8123847 4.8815255 1.1274625
-1.2999661 4.8264823 1.1350969
3.2821012 4.8613329 1.1222683
4.3248124 4.8615961 1.1203306
7.5115981 4.8222723 1.1320404
0.8584013 4.9152241 1.1350275
2.8934672 4.9046564 1.1208173
3.5433517 4.9171858 1.121026
3.6426885 4.926466 1.1258125
4.1637335 4.9529629 1.1272906
5.0910282 4.9491062 1.1266032
5.7100267 4.9975986 1.1170338
6.6953282 4.9442658 1.1229873
7.3485394 4.9743032 1.1230285
9.5534735 4.9972262 1.114876
-7.4984093 5.0947766 1.1067095
-4.2670841 5.0343328 1.1208355
-4.0862298 5.0497513 1.1281985
-3.9695263 5.0655279 1.1171687
-2.7191856 5.0699983 1.1136026
-2.3222651 5.0650301 1.1134981
-1.54094 5.0911908 1.1117733
-1.3527614 5.0477152 1.1237764
-0.88224316 5.0763206 1.1056428
4.9401646 5.0922027 1.1051555
5.0989523 5.0650263 1.1182961
5.4443879 5.0607214 1.1111152
5.9074173 5.0199585 1.1176807
6.2579179 5.045177 1.1143744
8.2430878 5.0699801 1.111786
8.5116959 5.0448284 1.1220279
8.8417101 5.0782065 1.1046662
-6.8844314 5.1430812 1.1220589
-5.4683285 5.1077557 1.1129158
-5.3783011 5.1242123 1.1233935
-2.44099 5.1791754 1.1117325
3.665606 5.1374388 1.1091759
5.2695923 5.1351557 1.1062311
6.0570779 5.1279492 1.1017226
7.5137324 5.1543016 1.100556
7.8763332 5.1650739 1.1051145
-2.8305774 5.2432222 1.102383
-2.7272987 5.2708187 1.1025074
-2.1572053 5.2742577 1.108598
4.6378927 5.2371249 1.1112437
-1.8291546 5.3359699 1.1000659
-3.2713373 5.4056296 1.1022772
7.3643365 2.4898746 1.2949591
3.5408452 2.5887678 1.2937702
4.1540499 2.5420184 1.2952038
4.8838005 2.5108342 1.291059
7.4505033 2.5736511 1.2919196
7.9754801 2.5587497 1.2897608
9.2980747 2.5525544 1.2870976
5.0964832 2.6793556 1.2918358
5.2756338 2.6527581 1.290267
5.5123296 2.6774535 1.2911713
7.6629057 2.6233573 1.2873824
9.0801811 2.632226 1.2918954
2.8605866 2.7531872 1.2877855
4.4601607 2.7275681 1.2735617
8.1484737 2.7715857 1.2720742
-8.1771431 2.882865 1.2696464
3.1049163 2.8970523 1.2582121
6.4341407 2.8792868 1.2721429
8.7397518 2.8466797 1.2640741
6.0949502 2.9453936 1.2662128
9.4222698 2.902971 1.2689922
2.4796805 3.0925794 1.2578945
2.916719 3.0334585 1.2520819
3.4498196 3.0469141 1.2662936
5.4579258 3.0988317 1.2574781
5.7091913 3.0268891 1.2598698
8.3080912 3.0301774 1.2596184
8.4505968 3.0830731 1.245682
4.6841235 3.1529706 1.2419324
4.9511814 3.1817319 1.2553749
8.6768122 3.1156991 1.243013
-0.56928301 3.293623 1.2494798
0.97432292 3.2394216 1.2356873
1.1038985 3.2287111 1.2539071
1.2984499 3.281498 1.2431285
2.4570522 3.2930355 1.2424541
4.6449642 3.2504816 1.2501243
7.157445 3.2978063 1.2452697
3.9348512 3.3829098 1.2366831
4.1438866 3.3730395 1.2426455
4.2913852 3.3091819 1.2407687
4.5049305 3.3288991 1.2410946
6.3376493 3.3732376 1.2426186
9.3037891 3.3007004 1.2448409
0.97617233 3.4955821 1.2338898
2.0705576 3.4485626 1.2275236
2.6337285 3.4588149 1.234324
3.4637246 3.4502628 1.235093
3.7175961 3.4312387 1.234782
3.8602328 3.4362359 1.2369246
4.0585113 3.4813218 1.2329453
7.9466395 3.4821787 1.2271187
0.2993784 3.5005364 1.2255127
0.75062984 3.5179386 1.2247663
1.9820502 3.5033495 1.2262589
3.0836318 3.5007181 1.2303865
4.4883542 3.5119388 1.2237465
7.2154551 3.5233016 1.2254946
-0.13751855 3.6580193 1.2173967
0.095646046 3.6325507 1.2189624
1.6838424 3.6881466 1.2038678
2.7101495 3.6681004 1.2120622
2.9262676 3.6753452 1.2135701
3.1074848 3.6350825 1.2089899
4.5316858 3.6366808 1.2215121
4.8448558 3.6696079 1.2223058
5.0695477 3.6608758 1.2198732
6.9941773 3.698107 1.2055252
7.2466202 3.6423125 1.2234762
-3.1435733 3.7720189 1.2066927
0.73911107 3.737992 1.2145624
2.0514555 3.7137623 1.2136624
2.2745409 3.7156937 1.2079784
3.3531551 3.7509854 1.210592
3.427434 3.7287121 1.2161658
5.4409919 3.7366676 1.213408
6.6180153 3.7956741 1.2087711
9.2646217 3.7469926 1.2095382
0.8310045 3.8443894 1.2075478
2.2599781 3.8432178 1.2112193
7.9022665 3.8730376 1.2024299
8.1510677 3.8183253 1.2025039
8.2179489 3.8228655 1.2089121
-0.13074231 3.9035144 1.2049124
9.1040039 1.3585194 1.3773775
8.1611309 1.5698469 1.3662294
6.7880054 1.6943095 1.3459353
7.5569458 1.7743951 1.3528992
-1.1666381 1.8115578 1.3530562
7.5699887 1.8825555 1.3344383
7.6573954 1.8453045 1.344444
7.9037528 1.8637507 1.3306568
8.218092 1.8499562 1.344609
8.6570539 1.8661528 1.3380667
-8.3562775 1.9411646 1.3297379
6.3524284 2.0762157 1.3202549
6.1456318 2.1282997 1.3158988
5.5247316 2.2974305 1.3116688
5.8706379 2.2485676 1.3058823
7.4489441 2.2250283 1.3081453
7.7050982 2.253844 1.3099864
8.1551523 2.2913902 1.3050305
9.067749 2.272408 1.3134155
4.7648096 2.3726027 1.302736
7.0639091 2.3044505 1.316891
7.2369995 2.3087268 1.3159001
8.7136612 2.3820524 1.3014281
6.0706806 2.4905448 1.3022454
4.2842703 2.5265388 1.3019066
4.4993739 2.5415611 1.302125
8.0423851 2.5405073 1.3005023
-7.1234221 -0.087196991 1.4898374
-7.4723978 0.076942176 1.4749002
8.757618 0.099762619 1.4712498
-8.4574051 0.15667427 1.4608665
-8.4981842 0.25970036 1.4571918
-8.2434464 0.34567389 1.4413352
-1.8375385 -1.1033884 1.5587714
-5.7197099 -0.6014291 1.5261698
-5.490181 -0.66574383 1.5135641
-6.7084541 -0.46990287 1.5037255
8.1312819 -3.0879364 1.6859664
2.4459088 -2.2272687 1.6344352
1.5386078 -2.0048051 1.6142973
5.0533357 -1.9637812 1.6192772
0.90131545 -7.3315578 1.9889647
1.7109256 -7.1553402 1.9864421
1.4353766 -6.9623833 1.9548954
3.0067019 -8.7864027 2.086045
5.8560748 -8.7143879 2.0844498
1.8148969 -8.6127863 2.0795434
1.098737 -7.5402012 2.0136583
2.2774653 -9.8949366 2.1751463
1.3440292 -9.5465899 2.1502471
0.66674769 -9.3378696 2.1326506
0.20581919 -8.9281969 2.105356
2.4455886 -11.273939 2.2659335
-0.10020471 -11.088169 2.2504666
0.25827467 -10.714231 2.2292643
6.5267878 -10.522372 2.2113137
6.0532398 -12.700679 2.3664739
