# .PCD v0.7 - Point Cloud Data file format
VERSION 0.7
FIELDS x y z
SIZE 4 4 4
TYPE F F F
COUNT 1 1 1
WIDTH 71
HEIGHT 1
VIEWPOINT 0 0 0 1 0 0 0
POINTS 71
DATA ascii
-6.6252003 8.30896 -1.065026
-5.6819181 5.8074946 -0.90387821
-3.4344482 8.0667648 -0.93071246
-7.4834099 2.3712008 -0.83584315
-8.239048 2.4477105 -0.86858362
-7.7978282 2.4160089 -0.84059662
-7.177886 3.6154492 -0.87040722
-2.8988132 7.4733868 -0.88187629
-1.813025 7.7099705 -0.83134288
0.44004959 10.80875 -0.89635587
-8.4667206 -0.43002772 -0.74743134
-6.5076094 1.1190703 -0.73532653
-5.8525481 1.6813778 -0.72648752
-5.9065838 1.8688167 -0.74128318
-4.1454897 3.1310349 -0.72554862
-3.27178 4.4755507 -0.74663919
-3.202492 4.6914659 -0.75450093
0.023640752 7.7942405 -0.76415098
-6.7166524 0.081031933 -0.69505942
-4.8810782 0.037015334 -0.62421572
-4.0817685 0.82796794 -0.63031328
-3.0656662 1.5094523 -0.61226845
-3.2830458 1.7096573 -0.62692213
-3.29229 1.9387084 -0.64965183
-3.1123013 1.9132247 -0.63786888
-3.2072887 2.0274036 -0.64429212
-3.1684527 2.0530839 -0.6392597
-3.4618249 2.1353984 -0.65398473
-2.7873242 2.1706405 -0.63069195
-3.0928497 2.2997086 -0.65041769
-3.0429039 2.7462015 -0.66384917
-2.7429221 2.7644393 -0.65388215
-3.360148 2.844348 -0.68729234
2.922816 7.7026386 -0.6482681
3.3673601 7.7042937 -0.62852401
4.0963521 8.9670401 -0.66232789
-3.1439753 -0.66153449 -0.51732761
-3.2679019 -0.47802114 -0.53151965
-2.9129512 -0.46379024 -0.51600778
-0.1778322 1.7475879 -0.51126444
-0.098698467 1.8160999 -0.5170542
0.10833928 2.456131 -0.53387648
-2.682807 -0.84674728 -0.49944693
-1.5451396 -0.84371078 -0.4542408
0.87666714 1.375537 -0.44149214
1.0962639 1.4830034 -0.45443234
1.0153387 1.8634427 -0.47612962
5.6986923 6.2199688 -0.47994521
9.259676 8.9472961 -0.4389506
0.59541619 -1.2304465 -0.34793139
-0.56189442 -1.1852715 -0.39601594
3.6574883 1.3111401 -0.33185941
9.1654463 6.4319658 -0.34338677
1.686462 -2.064631 -0.26562855
2.5494268 -1.9177423 -0.22769052
2.1271689 -1.8921478 -0.25064388
2.2719562 -1.8851879 -0.24213396
2.7212806 -0.99667585 -0.27572474
4.7222314 1.0600634 -0.28408059
5.7357039 1.5662569 -0.2734223
5.897212 1.565694 -0.24868867
9.5479765 4.5851116 -0.24947631
13.238262 8.1779251 -0.24852593
4.7058392 -2.188436 -0.13840568
4.3133888 -1.4392177 -0.19343978
4.170722 -1.3325111 -0.19531254
4.2494788 -1.3592858 -0.19438459
8.2761135 -0.87351799 -0.047362398
8.1865864 -0.2566089 -0.07571201
8.4779043 0.31406808 -0.097494952
7.9045033 -3.7774434 0.053703293
