# .PCD v0.7 - Point Cloud Data file format
VERSION 0.7
FIELDS x y z
SIZE 4 4 4
TYPE F F F
COUNT 1 1 1
WIDTH 59
HEIGHT 1
VIEWPOINT 0 0 0 1 0 0 0
POINTS 59
DATA ascii
0.21168976 5.7301807 -1.8170635
4.4825153 5.8704805 -1.8705113
-2.8872058 6.0905142 -1.8129674
-2.5350862 6.0950913 -1.8146679
-2.6939347 6.5241165 -1.8554505
-2.2780755 6.5433769 -1.8579879
-2.3397202 6.8922462 -1.8846196
-1.693743 5.1416612 -1.7454705
-1.9326135 5.3700128 -1.7598323
-1.9121511 5.4035215 -1.7661493
-2.1229954 5.5352645 -1.7779918
-4.3722734 4.2303705 -1.6506904
-3.2632008 4.3653579 -1.6698256
-4.3381205 4.4949951 -1.6719223
-3.7429214 2.6657903 -1.5341675
-3.3288345 2.7298808 -1.5475762
-5.1019802 2.9724679 -1.553681
-4.8222771 3.292047 -1.5718452
-3.2381501 1.6561947 -1.4671161
-5.1427712 1.8073287 -1.4639915
6.4755316 -1.4562047 -1.3001927
6.0321217 -1.3469161 -1.3051559
5.3936672 -1.161252 -1.3141487
6.875608 -1.1701602 -1.3182224
5.4814315 -1.0686457 -1.3169899
6.0880318 -1.0703032 -1.3196959
6.2504115 -1.0488803 -1.3228321
6.5380192 -1.0651578 -1.3241172
6.7509384 -1.0190296 -1.3388624
7.0988989 -1.0273471 -1.3298383
6.1834555 -0.95333314 -1.3258543
6.3630266 -0.92380917 -1.3382125
6.8161807 -0.99518496 -1.3400801
6.309144 -0.74868762 -1.341676
6.6010237 -0.71582985 -1.3505161
6.8542986 -0.69487286 -1.3563745
4.7036209 -0.48736477 -1.3632348
-3.3572478 -0.30551609 -1.3001032
-5.3463578 0.73962831 -1.3700037
-5.0251441 0.71805221 -1.3681295
-4.1994166 0.85675579 -1.3814138
-5.7411151 1.0771413 -1.386984
-5.4540567 1.0003493 -1.3930933
5.2478228 -2.3791699 -1.2104508
7.8732352 -2.2742763 -1.2432196
6.9689665 -2.1085806 -1.2427208
6.3519268 -1.6681659 -1.2850052
6.0974622 -1.5300896 -1.28965
-3.0224791 -1.4004478 -1.2217278
4.4596157 -1.4667196 -1.2827176
6.3045988 -1.3151329 -1.2955632
-1.4778562 -1.2673405 -1.2444806
-1.4884398 -0.68770254 -1.2789276
-5.7445612 -0.19951074 -1.2911179
-0.9972772 -2.4833856 -1.1492028
-8.5813761 -2.2767191 -1.1046522
-5.8694458 -1.658705 -1.1642414
-1.108425 -3.3064785 -1.0715851
-7.7177744 -2.5833559 -1.0864093
