# .PCD v0.7 - Point Cloud Data file format
VERSION 0.7
FIELDS x y z
SIZE 4 4 4
TYPE F F F
COUNT 1 1 1
WIDTH 106
HEIGHT 1
VIEWPOINT 0 0 0 1 0 0 0
POINTS 106
DATA ascii
-11.747575 25.11335 -0.13593017
-5.7186093 9.3315735 0.86148143
-5.3051782 8.0814152 0.93820381
-2.7471631 5.5407381 1.0957901
-4.666275 5.6662102 1.0902764
-5.1508269 5.7386971 1.0910602
-2.9402533 5.7155128 1.0860553
-7.5317111 5.8742208 1.0767149
-6.5458164 5.8746538 1.0921541
-5.7051458 5.8745828 1.0893886
-5.0492611 5.8468947 1.0919123
-4.6986809 5.881237 1.0815467
-4.704061 6.0694242 1.0686469
-6.9110632 6.2848272 1.0574639
-1.2484719 6.3073015 1.0673637
2.9595881 6.3885741 1.0531769
-6.2742929 6.4857264 1.0418029
-6.3417873 6.6379247 1.0277982
-1.1041355 7.110785 1.0065376
0.27622771 4.3124008 1.1835096
7.4507017 4.301466 1.1804632
-3.0637259 4.4790416 1.1777718
1.6956413 4.4814434 1.1674068
6.6407037 4.4873385 1.1680943
-6.8570938 4.5299406 1.1667569
0.33641291 4.5012865 1.1659428
-6.3266172 4.669313 1.1570351
-4.9149446 4.6516705 1.1622167
-3.0269818 4.6538019 1.1575608
-1.0765028 4.6762123 1.1603171
-0.88987672 4.6689682 1.1645806
-7.8328133 4.7876334 1.1534674
7.2747297 4.7071056 1.164441
-5.3601575 4.8450661 1.1540191
-2.6244669 4.8704834 1.1498489
-0.90240514 4.8956685 1.1439949
6.1654453 4.845839 1.1443232
-1.068822 4.9039698 1.1443253
-0.69700217 4.9221187 1.142134
-7.7315435 5.0628905 1.1367283
-4.8638573 5.1361995 1.1347129
-3.0950396 5.156744 1.1284473
-2.1345353 5.1247358 1.1311884
-4.9219618 5.2518148 1.1232492
-2.3109059 5.2802095 1.1225921
-7.6389666 5.3382206 1.1099107
-5.6240053 5.3915415 1.1161782
-5.1365089 5.491653 1.107258
-4.5251808 5.4794965 1.1121845
-4.0267224 5.4758377 1.1004066
-3.967809 5.4450259 1.1107854
-2.2851663 5.4694815 1.1024685
-4.6927633 5.579874 1.1022264
-5.4403744 5.6166301 1.1066757
2.7750049 2.7871921 1.2891066
2.459399 3.523818 1.237259
2.8607285 3.5457411 1.2365725
-1.3302923 3.6821673 1.2325535
-0.65672684 3.7822404 1.2229548
0.56065965 3.7074516 1.2314327
8.1429253 3.7564998 1.2266912
8.5567741 3.7255728 1.2286936
-1.1164825 3.8701639 1.2175488
-0.93014473 3.8282273 1.2200773
0.79502368 3.8339286 1.2241445
1.6718093 3.8526711 1.2164867
1.8374677 3.8769431 1.2198656
-4.3455963 3.9478528 1.2119141
-0.71356672 3.9278436 1.2093745
-0.46663165 3.9062772 1.2115256
1.0949156 3.9934225 1.2074397
1.3467554 3.9134688 1.2144346
1.5335026 3.9689 1.2157737
7.0217004 3.9914362 1.2106683
7.4698343 3.9025855 1.2181269
-0.43921334 4.0695992 1.2053595
-0.10218382 4.0012507 1.2033223
6.9055781 4.0706005 1.2064108
8.2134581 4.0966506 1.2080309
8.6504011 4.0762601 1.2093788
-1.1101162 4.1268749 1.2026073
6.2045698 4.1065555 1.2075518
7.4118953 4.1789064 1.2057545
7.9171381 4.1782513 1.206665
-8.5004578 1.4660338 1.358125
6.4804807 2.2954741 1.3232629
6.6395893 2.2839227 1.3222339
4.467659 2.3496132 1.3179154
5.6712584 2.4670787 1.3105865
-6.0943437 -0.47982982 1.4834037
-6.4198294 -0.3516168 1.4749727
-8.4544277 -0.07033065 1.4574121
-7.2954617 -0.083028913 1.4666247
-6.7508287 0.065404736 1.4572773
-7.8760672 0.20692179 1.4450504
8.5709085 -0.9156599 1.5192155
7.4001374 -6.6946554 1.8913913
4.0485468 -5.4412093 1.801796
6.7087741 -9.8639336 2.0805597
-0.21331543 -11.685684 2.1864996
3.3941212 -12.470278 2.24125
3.3931777 -12.331652 2.2314067
2.3018517 -12.239478 2.2307796
2.4647508 -12.26354 2.2218914
2.2532349 -11.855387 2.2000599
5.3216295 -15.475387 2.4333203
