# .PCD v0.7 - Point Cloud Data file format
VERSION 0.7
FIELDS x y z
SIZE 4 4 4
TYPE F F F
COUNT 1 1 1
WIDTH 94
HEIGHT 1
VIEWPOINT 0 0 0 1 0 0 0
POINTS 94
DATA ascii
-6.065731 8.9663572 0.79712009
-5.7451501 9.0398064 0.78928035
-5.8773775 9.1264915 0.78820646
-5.3262243 9.1030922 0.77906066
-5.6191072 9.2240992 0.77853525
-6.5865002 7.8447938 0.89855099
-7.1422491 7.9043303 0.88216197
1.3066163 8.0669413 0.87746823
0.65651 8.2926941 0.85988152
0.082653761 8.4185963 0.85222626
-6.2647943 6.5078392 0.99934196
-5.7959738 6.510643 0.99447322
-5.4840784 6.5365276 0.99481678
-3.8341446 6.5579662 0.99618107
-5.6684008 6.6873074 0.98471189
-1.926187 6.6575003 0.99298567
-6.8862824 6.7930455 0.97507411
-3.7321935 6.7256479 0.98979664
-6.4935789 6.8056397 0.96607375
7.7116971 6.8633146 0.97617644
-6.6906157 6.9325976 0.96851701
-2.8489969 6.9496107 0.96548539
-7.3139687 7.050612 0.95211869
-5.8387661 7.0697803 0.95503128
-5.5213494 7.0630112 0.94824862
-6.6353002 7.1272097 0.9575417
-5.7303972 7.1383753 0.94576883
2.8304119 7.1073284 0.96041256
3.0272052 7.1188383 0.95654339
-3.70152 7.2644367 0.94595969
-6.6050925 7.3166566 0.94297552
-5.8781209 7.311986 0.92504823
-6.7615352 7.4637313 0.91714555
2.1497569 7.4203434 0.93151486
0.56129432 7.7864609 0.90568268
2.3003807 7.7158203 0.90042984
-6.0818148 5.4969335 1.073946
8.4812937 5.5426168 1.0915875
-6.9449029 5.6441031 1.064189
8.0963202 5.718401 1.0850257
-6.1123061 5.9028053 1.0428338
-6.1282067 6.1291947 1.0272713
-3.4719744 6.129735 1.0317464
5.3437386 6.3124933 1.0162044
6.2272406 4.9324589 1.1369747
-1.4742861 5.3474865 1.1083075
3.7476087 5.3591824 1.108897
2.1354432 3.0558672 1.2957968
7.7253528 3.1107399 1.2940447
1.5520267 3.2790167 1.2658296
2.6603713 3.2762301 1.2687948
7.667325 3.2126317 1.2916318
0.095624343 3.3466439 1.2621468
8.0984077 3.3021383 1.2735943
1.0078475 3.485759 1.2608188
9.5287819 3.4170959 1.2662609
2.514101 3.6352136 1.2400352
8.397296 3.6936119 1.2482474
-0.30627114 3.7610159 1.2352139
0.91121757 3.7234769 1.2323091
-1.8907117 3.863163 1.22245
-0.27967811 3.853369 1.2257676
-2.6667764 3.9065375 1.2204226
-1.5339376 3.9492462 1.2234645
8.6878185 3.9160786 1.2241095
0.54680991 4.0967112 1.2121227
6.4929056 4.0862436 1.2134117
-2.9583347 4.1355376 1.2076235
-1.4711618 4.1502857 1.2056651
-0.69680041 4.1542101 1.2072208
9.4956188 4.2350264 1.2086413
9.2253227 2.0533504 1.3759798
8.7200327 2.5039327 1.3419149
9.3049068 2.6799481 1.3204128
-8.2109003 2.7220716 1.315557
1.9331748 2.9760342 1.3043677
2.0937731 1.109766 1.4581964
-6.3715515 -0.30468369 1.5636997
8.4196901 -1.9020337 1.6975875
-0.96192598 -1.3615648 1.6511931
-1.8775144 -1.2732265 1.6377106
-1.7473648 -1.2498846 1.6361721
-2.5217118 -1.1571136 1.6457182
2.3821018 -2.2159958 1.7265229
2.9342439 -2.2864199 1.7412431
3.2882943 -2.2711415 1.7399664
2.6228499 -2.1657441 1.7269574
4.9435015 -2.0985789 1.7216189
8.3656359 -1.9392425 1.7111161
8.0452642 -3.6356058 1.839913
3.9654355 -5.5419064 2.002141
1.8464094 -7.428833 2.1493018
1.8044395 -7.1649776 2.1397812
1.4889916 -7.0583558 2.1284723
