# .PCD v0.7 - Point Cloud Data file format
VERSION 0.7
FIELDS x y z
SIZE 4 4 4
TYPE F F F
COUNT 1 1 1
WIDTH 82
HEIGHT 1
VIEWPOINT 0 0 0 1 0 0 0
POINTS 82
DATA ascii
7.3494315 17.456776 -0.24415243
1.3308175 10.719075 0.27509683
-0.19099218 10.9638 0.26368201
-5.9238043 9.5595627 0.3921392
3.8396492 7.6905508 0.49774501
2.5589266 7.9621086 0.47833419
2.4186921 8.0031071 0.47330934
-4.7787871 8.2517405 0.48695496
-4.735775 8.5104942 0.47539848
-6.687911 8.6612635 0.47910619
6.4479156 6.3739538 0.58092457
9.3374977 6.4823651 0.55970651
8.2545223 6.6669073 0.55540669
-7.2541356 7.1242018 0.58503526
-7.3010588 7.300436 0.57730442
-3.5168884 7.3182926 0.54939288
-7.2295156 7.4821086 0.56801945
-2.0930443 7.5991426 0.52500165
-1.2951074 7.5764923 0.53174144
-3.0287638 7.9829164 0.50640571
-6.6981812 8.1292524 0.50953329
-6.5614614 8.1251163 0.51663893
8.2238607 4.6648684 0.69460177
8.1148415 4.9246807 0.68003988
4.8501816 5.5590229 0.64482617
-5.1077871 6.681056 0.61071718
-7.3526764 6.7264204 0.61820376
-5.0877166 6.8137784 0.6010884
7.875947 3.8516159 0.76285672
8.0766869 3.8960056 0.75037038
8.0823154 4.2657347 0.72955036
-7.4854426 5.1878963 0.73555589
7.9157209 3.105268 0.81693047
4.6068568 3.2953763 0.82518744
4.3709259 3.3552895 0.82279468
4.5773077 3.324918 0.82115281
7.9236312 3.3309412 0.80708051
2.4403443 0.86205643 0.99739534
2.2737319 1.1258612 0.98601156
2.1178837 1.273757 0.98137856
-1.0710797 1.3734872 0.9928903
8.6617279 1.4648612 0.93493199
-0.94123685 1.5751855 0.9677738
-1.0960677 1.7404444 0.94866621
-0.9185065 1.7610624 0.9487977
-8.4502163 1.8105813 0.99052125
-4.8891869 1.9954578 0.95728993
-1.3606918 1.9280736 0.94623387
-8.3282404 2.1234908 0.96183717
-4.6332507 2.6211212 0.90547311
-4.3387532 2.6271038 0.90623999
-8.2514181 0.34855461 1.0838349
8.4771118 -1.4832637 1.1523259
-0.79717565 -1.3792915 1.1817114
8.5267143 -1.306721 1.1335219
-5.1872616 -0.86931896 1.1680247
-4.3699121 -0.70146787 1.1532667
-4.9104395 -0.48751783 1.1424863
-5.5333405 -0.32853574 1.1245705
-5.1042662 -0.37781301 1.1349669
-6.4597793 -0.15959321 1.1296844
-6.3140583 -0.14169808 1.117218
-7.9773989 -0.0020649508 1.1148639
7.3320265 -3.0949266 1.273424
8.1825857 -2.725534 1.2446361
4.79845 -2.1856773 1.2148106
-0.70972466 -1.7188511 1.2143636
6.7036533 -6.9837766 1.5695503
7.408874 -6.1705179 1.515074
2.1266844 -8.0459986 1.6631299
1.602309 -9.7733173 1.7897562
5.0964079 -9.2226229 1.7429347
6.557909 -8.9433346 1.708146
1.7122365 -11.235504 1.8982744
0.15466285 -10.781817 1.8816235
1.5520523 -10.016378 1.825846
1.6865635 -10.078165 1.8139317
3.6915956 -12.607167 1.9997275
6.2543116 -11.850647 1.9328041
6.3243246 -11.44152 1.9071147
4.2089458 -15.254865 2.1875236
3.8889575 -15.167553 2.196075
