# .PCD v0.7 - Point Cloud Data file format
VERSION 0.7
FIELDS x y z
SIZE 4 4 4
TYPE F F F
COUNT 1 1 1
WIDTH 123
HEIGHT 1
VIEWPOINT 0 0 0 1 0 0 0
POINTS 123
DATA ascii
9.8015928 4.6468563 -1.3999997
9.5552197 3.4693747 -1.114255
9.6510916 3.8816488 -1.1106699
8.6210814 -1.3060074 -1.0225595
8.7469873 -0.65685779 -1.0726678
8.8153534 -0.32908836 -1.0557773
9.6989441 4.1154137 -1.0650475
8.6459742 -1.1290689 -0.90357757
8.4229822 -2.2125726 -0.86331052
8.7558765 -0.53038657 -0.87244332
10.005205 5.779068 -0.82676685
8.622838 -1.1746166 -0.65509105
9.8368235 4.9734163 -0.55529463
8.2015486 -3.2629995 -0.4109363
8.6439991 -1.1076446 -0.46240979
10.044134 6.0101776 -0.46558696
8.7407398 -0.59386945 -0.34479114
9.4623861 3.0940452 -0.3305935
8.409071 -2.2074013 -0.27521548
8.7141514 -0.64138782 -0.26392227
9.9793472 5.7312317 -0.17274402
8.4760342 -1.88784 -0.085344285
8.6222639 -1.1325333 -0.06319651
8.7087555 -0.67673159 -0.054341704
8.4266052 -2.0964532 0.084171377
9.4495831 3.0854411 0.093968429
9.8398876 5.0773144 0.051472049
8.2526989 -2.8906739 0.14374466
8.3068428 -2.657131 0.11809211
8.6120987 -1.1138197 0.15143269
8.7069721 -0.6633321 0.12118149
9.5397644 3.5245142 0.11943424
8.2606716 -2.8767529 0.29723239
8.7605448 -0.36667916 0.24801423
9.538456 3.5663791 0.22908688
8.2171278 -3.1103821 0.30603147
8.3397818 -2.4771738 0.3130593
8.3763523 -2.2477458 0.32868862
8.4382458 -1.9255209 0.3768484
8.6193638 -1.0701368 0.31595558
8.2132692 -3.0638225 0.43334979
8.4140015 -2.0459368 0.51930708
8.4594183 -1.8746994 0.54221177
8.6356163 -0.95385468 0.54430187
9.5934649 3.8948028 0.55950683
8.6150036 -1.0310979 0.65147418
8.6455002 -0.90537691 0.67279631
8.663147 -0.73053944 0.67736024
8.2381248 -2.9077687 0.71208107
8.3625078 -2.2473693 0.71200335
8.4723034 -1.6908307 0.70892638
8.5172014 -1.5437829 0.75354981
8.5518103 -1.3512248 0.72236282
8.711895 -0.49666476 0.70589459
8.8446426 0.10136761 0.70038396
8.8634911 0.22647902 0.76895809
9.8021612 4.9867983 0.70185548
9.815547 5.0320749 0.73995239
9.9465847 5.6870499 0.75820553
8.4453516 -1.8707696 0.86548924
8.6686401 -0.71428561 0.87210512
8.8439655 0.12032954 0.87515229
8.4688158 -1.7160856 0.91410589
8.6372356 -0.90571266 0.90538085
8.2236652 -2.8954411 1.0724974
8.4241514 -1.8680391 1.0799658
8.6175318 -0.94832766 1.0662612
9.9412546 5.7187271 1.053154
8.6729832 -0.65442991 1.1251895
8.6912327 -0.56039268 1.1899316
8.7428417 -0.26618195 1.1787534
8.8527946 0.27095491 1.1143341
8.9031096 0.55902034 1.1710025
9.4327908 3.147912 1.149354
9.4643002 3.3261192 1.1668971
8.203866 -2.9557502 1.2914979
8.4572678 -1.7031937 1.2673018
8.8629942 0.28114891 1.2263718
9.4540882 3.279521 1.2827835
9.6437759 4.296998 1.2195249
8.3429661 -2.2439291 1.3194597
8.4177532 -1.8795629 1.3354363
8.5059738 -1.4639457 1.3487115
8.8201332 0.099183738 1.3507664
9.3692131 2.8719597 1.3275304
8.2648659 -2.6221886 1.4352162
9.197113 2.0195208 1.4086907
9.2094851 2.0985699 1.406606
8.9759331 0.94826788 1.5339997
9.0905733 1.4970772 1.5229509
7.6002316 -6.0129938 1.6564279
8.3563871 -2.1211808 1.6770661
8.4475842 -1.7333195 1.6548609
8.6584997 -0.66917181 1.6890454
8.7683945 -0.12868707 1.6930532
8.8103371 0.12357054 1.6730375
8.9296551 0.69187993 1.6576142
9.0854778 1.5000774 1.684921
8.6400547 -0.69623244 1.8937788
8.7122631 -0.32916507 1.8480077
9.0043736 1.0913196 1.8403115
8.3320808 -2.2467353 1.9048706
8.2435093 -2.656404 2.0921302
8.3613939 -2.1018858 2.0724006
8.5854826 -0.93874139 2.0686071
8.6384478 -0.67583174 2.0644772
8.712923 -0.31947768 2.0863156
9.1004086 1.6907368 2.0556023
8.0104456 -3.814599 2.1730459
8.1461239 -3.1643481 2.1369963
8.426712 -1.6930285 2.1533194
8.1870918 -2.9070563 2.2263498
8.7420444 -0.078635752 2.200923
8.3324356 -2.2268662 2.3131018
8.426178 -1.6769787 2.3314507
8.4550943 -1.5745068 2.3300471
8.5137815 -1.2815664 2.3894997
8.6019278 -0.83000666 2.3539968
7.922718 -4.193707 2.4678252
8.1450863 -3.1068463 2.4462662
8.3721418 -1.9044113 2.7557955
8.745019 -0.042009741 2.744189
8.2193041 -2.5254498 3.3399427
