# .PCD v0.7 - Point Cloud Data file format
VERSION 0.7
FIELDS x y z
SIZE 4 4 4
TYPE F F F
COUNT 1 1 1
WIDTH 253
HEIGHT 1
VIEWPOINT 0 0 0 1 0 0 0
POINTS 253
DATA ascii
6.4767113 13.944307 0.26153266
-5.8900156 9.6424198 0.75221789
-0.094551563 7.7942672 0.88920146
3.4146676 7.7065964 0.87344182
0.14471652 7.8414278 0.8844704
2.3139391 7.9624214 0.85020238
2.5953612 7.9181643 0.84758961
2.6051042 7.9174614 0.86071938
-3.7053654 8.0288773 0.88551974
1.9265125 8.0163307 0.84924328
-5.9577632 8.169055 0.8835817
-3.9622393 8.1611958 0.87925059
-0.47183812 8.1545715 0.86170608
0.43299145 8.1515684 0.85528201
0.97072816 8.1693211 0.83545339
-5.9312763 8.2647133 0.87931001
-5.3913641 8.270421 0.87565899
-4.9079299 8.253521 0.87803864
-4.7539072 8.2792988 0.87740135
-4.0496869 8.2864285 0.87725663
-3.3366106 8.3221092 0.86787474
0.30221701 8.366765 0.83547258
0.45590639 8.3531027 0.82787567
-6.1091404 8.4010506 0.86564517
-4.1124172 8.4618216 0.86094755
-0.72291917 8.4709845 0.81955624
-0.81867325 8.5403891 0.80925357
-3.8743358 8.7374611 0.82865107
-6.5935984 8.882247 0.83810109
-5.8870182 8.9075813 0.82978755
-5.7708607 8.9680786 0.81701708
-4.9287553 8.9635859 0.8107903
7.9683719 5.9099603 0.99454033
4.7745733 6.10395 0.99554121
3.9320598 6.2888327 0.9906674
7.4499435 6.2601905 0.97794431
4.9638491 6.3375421 0.97588152
3.6608477 6.4886856 0.9848398
2.0910921 6.5397067 0.98573279
2.5753102 6.5765038 0.98260349
4.4259968 6.5068226 0.97676879
8.9690857 6.5525055 0.92094165
0.12679856 6.6175461 0.98259962
1.3184909 6.6363335 0.97617573
0.55718148 6.7032652 0.97362792
-0.13520241 6.8226948 0.97800225
0.88654453 6.8856821 0.96678758
1.8413447 6.8742666 0.95474005
2.1832767 6.8443804 0.95083386
8.0371056 6.8113952 0.90483952
1.3434539 6.9150772 0.95848495
2.2109544 6.9616003 0.9423579
-6.4585028 7.0604486 0.99192369
0.5710609 7.0904832 0.9521153
2.1750786 7.0372972 0.93628061
2.2489934 7.0682292 0.93453276
3.8301945 7.0624633 0.92152238
-1.4525747 7.181036 0.94725329
-0.43327367 7.1583996 0.94931996
-0.97196507 7.2966609 0.93764359
-0.61579418 7.2183409 0.93271959
-0.30221766 7.3342061 0.92952436
0.087729424 7.3367863 0.92482889
0.89057595 7.3861146 0.92201293
-3.5188046 7.4458094 0.93744355
-2.9734995 7.4149861 0.94076133
-3.8561461 7.5393105 0.932392
-2.3456373 7.7849321 0.91014528
-2.3725517 7.8796673 0.90136659
4.4908042 5.1091833 1.0960535
3.4743567 5.2445302 1.087605
4.1518025 5.2520199 1.077842
4.2689967 5.2904029 1.0751923
5.7205033 5.3308983 1.0779721
-3.6947117 5.6885185 1.0976038
5.8874154 5.6485281 1.045716
-3.4938896 5.754415 1.0963719
2.9688413 5.7382975 1.0506275
3.295846 5.7209949 1.0478967
-3.0750902 5.8084064 1.0848669
-2.0951056 5.8612499 1.0726995
1.770489 5.8622599 1.0419593
3.5458293 5.8519359 1.0453444
4.739439 5.8426671 1.035145
4.8405151 5.8082881 1.0310906
-2.434881 5.9846492 1.0684464
-1.3439245 5.9210281 1.0681732
1.9932286 5.9468775 1.030597
2.5268145 5.9316258 1.0383902
5.1467319 5.9160914 1.0218608
-1.3268799 6.0924482 1.0557748
3.6002994 6.0799875 1.0161631
1.8801675 6.148798 1.0278684
2.9216659 6.1420546 1.0207691
4.9459677 6.1015816 1.011216
-3.0461679 6.2366285 1.0478413
1.7655916 6.2803135 1.0167823
2.5694306 6.229681 1.0136578
-2.8027134 6.4482412 1.0385823
1.796165 6.4094863 1.0014448
-5.6123486 6.5458493 1.0384609
-2.7145882 6.6581054 1.0173143
-4.4555249 6.8939447 1.0071809
-7.3247967 7.0131626 1.01823
-6.9427924 7.0017309 1.0111791
8.1677666 3.7897367 1.1903287
7.3268876 3.882797 1.1840171
8.2439289 3.8305855 1.1869614
8.6718569 3.8694072 1.1829869
6.9231758 3.9256041 1.1806729
7.6546679 3.919358 1.1837159
8.1166477 3.9183321 1.1773393
8.5674782 3.9263701 1.1814973
9.0657234 3.9505839 1.1675861
9.5944977 3.9514527 1.1716106
9.3336143 4.0217242 1.1593535
8.1275854 4.136735 1.1578572
8.9229221 4.1168704 1.1536574
9.1183653 4.1499953 1.1550854
4.0462284 4.2764168 1.1873727
8.706358 4.2920136 1.1470665
1.2755601 4.424314 1.1781063
1.4767711 4.4464426 1.1734697
3.6400464 4.4325495 1.1698382
5.1051226 4.4618692 1.1446134
4.886734 4.5218635 1.1414373
7.3424168 4.5255084 1.1398655
8.2182388 4.5424438 1.1314511
4.4484377 4.6774235 1.1303097
8.3031178 4.7095623 1.1050904
4.9335814 4.8391008 1.1162133
5.5217357 4.9949942 1.105384
-0.55933517 5.0378046 1.1362376
-1.9637733 5.1698236 1.1390111
-1.6643522 5.1493816 1.1337589
-1.1493181 5.1618919 1.1310848
-1.3825884 5.3793626 1.1139411
-0.74506444 5.3052168 1.1207776
-2.1103292 5.4394083 1.1107051
-3.6736524 5.5740523 1.1154072
-2.9168496 5.5009594 1.123615
-2.5045228 5.6934557 1.1011863
-4.9005237 5.7013884 1.1144173
5.7826214 2.9106426 1.2901604
7.7053957 2.9336407 1.2839608
4.4919977 3.0440435 1.2873449
7.3846555 3.081131 1.2730417
7.5443535 3.0306783 1.2786716
6.5273266 3.1085935 1.2739476
1.6355456 3.2627606 1.2922845
5.8569517 3.2505693 1.2551651
5.7520947 3.3590879 1.258545
6.4981823 3.3629694 1.2456368
-0.51107323 3.4715855 1.2980473
4.3173566 3.4231887 1.2661183
4.9097137 3.4664588 1.2485381
5.3437724 3.4726772 1.2455626
6.2622452 3.4614198 1.2465508
7.1739473 3.4233029 1.2405626
-0.95087969 3.5414231 1.2911963
1.474779 3.5300155 1.2733505
5.1051455 3.561213 1.23943
5.9045229 3.520942 1.233986
0.24811679 3.65328 1.2647579
5.6973448 3.6716342 1.2229965
-2.0754948 3.7638032 1.2825389
3.9230866 3.7516732 1.2267824
4.1213064 3.7073238 1.2243096
4.6948185 3.7343645 1.2245812
5.3689089 3.7148507 1.2269472
5.8901911 3.7227106 1.2198234
6.0208426 3.7032018 1.2256929
-2.0911577 3.8348577 1.2667518
-1.768163 3.8835721 1.2670079
4.3607898 3.8297281 1.224116
4.5465536 3.8655593 1.2233796
4.8807087 3.8555663 1.2199569
5.0301728 3.8562746 1.2183516
5.4564857 3.8634095 1.2146311
-3.2766938 3.9673426 1.2616168
-2.5257502 3.939631 1.260904
3.342299 3.9382319 1.2117319
3.873188 3.95926 1.2148159
4.7184711 3.9136901 1.2160842
0.9469946 4.0940247 1.2112981
1.3374801 4.0335398 1.2176262
1.4648523 4.0852022 1.2151554
2.2857065 4.0714617 1.2117314
2.5083151 4.0558925 1.2123908
3.1027758 4.0692558 1.2041261
4.3125267 4.0796809 1.2022893
4.5585341 4.0258431 1.206625
-4.3045859 4.1091337 1.2609744
0.20606095 4.1427231 1.213604
0.74589825 4.1505904 1.2166716
1.1182251 4.106039 1.2107263
1.8606057 4.1148224 1.2077653
3.5048294 4.1390743 1.2060361
-7.9736319 4.2392893 1.2723528
-4.1476116 4.2667694 1.2414849
-0.42938799 4.2701144 1.2085085
0.86986804 4.2187505 1.2147288
-2.4458942 4.3120065 1.2180773
-0.31255785 4.3196173 1.2100919
-0.080443263 4.3076372 1.2032182
-4.7113142 4.4264498 1.2245104
-2.1799626 4.4505396 1.2045649
-1.7098604 4.4376402 1.2078824
-1.3807911 4.4666624 1.2082682
-6.4863615 4.5848594 1.2378976
-4.2688627 4.5711303 1.2161341
-7.8370647 4.7932143 1.2167706
-5.3902893 4.7482548 1.2010567
8.1827307 1.9434619 1.3564301
7.3500681 2.1462026 1.3471293
3.950459 2.5577645 1.3378055
7.3015261 2.6924436 1.3092208
7.1406498 2.733875 1.3086116
1.5855193 2.9890943 1.3247843
1.2684913 3.0861633 1.302428
1.950386 3.0754991 1.3159266
0.87730372 3.1770134 1.3140209
0.65849245 3.2888122 1.3037819
-7.9786243 3.9223011 1.3079734
8.8930464 0.56472474 1.4813007
-1.1354065 1.7520895 1.4641305
-4.5179763 2.1629462 1.4388983
-4.3861113 2.3300471 1.421263
-8.4786615 1.3971345 1.5455768
8.5757217 -0.93209887 1.6287301
-1.7056487 -0.73236203 1.6908668
-6.1187334 -0.43098354 1.6974654
-6.5020523 -0.27132368 1.6892734
4.2857256 -2.4590249 1.7978756
2.0838456 -2.1317027 1.7830166
1.9016368 -2.0685334 1.7884033
0.84640139 -1.7342657 1.7633893
1.1356468 -1.7805638 1.7709501
1.2814269 -1.7952662 1.7617599
8.3998842 -1.6882734 1.7108591
-1.5976491 -1.081599 1.7282108
-6.6607943 -0.44293642 1.7030619
8.0400696 -3.4377551 1.8655112
6.5046225 -2.9438691 1.8335851
8.1705532 -2.927331 1.8164809
5.4920602 -2.8315058 1.8396404
4.053122 -2.5496209 1.8236277
3.5374207 -2.4146898 1.8037727
2.3125484 -2.2412004 1.8002151
1.9094291 -2.1305072 1.8005794
2.9122257 -7.45397 2.2854624
3.2153609 -7.4081073 2.2747221
6.5534744 -8.1980915 2.326344
