# .PCD v0.7 - Point Cloud Data file format
VERSION 0.7
FIELDS x y z
SIZE 4 4 4
TYPE F F F
COUNT 1 1 1
WIDTH 133
HEIGHT 1
VIEWPOINT 0 0 0 1 0 0 0
POINTS 133
DATA ascii
4.2012806 -2.729054 -0.98674589
-5.4582911 -0.56381351 -0.50848591
4.9912577 -2.8436677 -0.47514337
-2.3209412 -1.2461355 -0.46344149
0.91738188 -1.9349618 -0.31620479
-1.55019 -1.4036014 -0.30001771
-3.9010577 -0.88356078 -0.3152127
-5.0996361 -0.63079345 -0.32618195
3.0646467 -2.4039736 -0.2989015
2.1694703 -2.2080376 -0.25031447
0.039581325 -1.7422168 -0.26582164
-2.2665401 -1.2381737 -0.2254556
-2.5350778 -1.1852444 -0.29510438
-2.9235711 -1.0860403 -0.22303125
-4.4619179 -0.76565206 -0.26593387
0.54708111 -1.8426027 -0.12176068
-1.5651655 -1.3783257 -0.14727545
-2.339669 -1.2092292 -0.19392759
-2.706104 -1.1375544 -0.12932944
-2.5202336 -1.1739087 -0.1712503
-5.1515255 -0.58179832 -0.10931796
-6.8729563 -0.22741628 -0.13917521
-7.3578272 -0.10663503 -0.15929809
3.1480875 -2.4151464 -0.097353697
3.3652127 -2.4510515 -0.037538629
3.1202111 -2.3926837 -0.077276208
2.0344386 -2.1635702 -0.087326065
-3.114964 -1.036248 -0.064372219
2.7419128 -2.3087888 0.046336204
-1.3299642 -1.4108576 0.090995654
-1.7509394 -1.3232169 0.040970176
-2.6647649 -1.1314843 0.033300892
-4.689692 -0.68005419 0.054955423
4.1591568 -2.6055641 0.19680768
4.4206448 -2.6591671 0.1135403
3.124433 -2.3760512 0.17097805
4.7631273 -2.7260365 0.28599155
3.1517718 -2.3785446 0.27277383
2.5367749 -2.2377317 0.23698659
2.6302116 -2.2590766 0.25409824
2.2574477 -2.1746902 0.25453475
1.709814 -2.0547113 0.22120476
1.2962003 -1.9635894 0.2622796
0.7086978 -1.8264027 0.28954297
-1.9146676 -1.2531838 0.28924316
-4.8561106 -0.61989307 0.26553047
-4.5147257 -0.69016308 0.26635444
4.3697877 -2.6280873 0.30452362
4.0598783 -2.5769258 0.30466956
4.2569165 -2.5977087 0.34526503
3.2107422 -2.380497 0.35026005
0.043964889 -1.6857333 0.32282177
8.0767498 -3.4350891 0.44565529
0.75505018 -1.8238103 0.48780563
-3.6640711 -0.85311198 0.49939409
4.2575254 -2.5928931 0.56249738
-0.04525236 -1.6412998 0.50230968
-1.9133071 -1.2328383 0.54624355
-6.9459677 -0.13099827 0.50793445
8.0806847 -3.4120979 0.63035476
3.2133431 -2.3512452 0.64691401
1.6716917 -2.0127623 0.67880541
-0.8435151 -1.464712 0.67023468
-1.9488809 -1.2184055 0.63844609
-2.9920433 -0.98788971 0.69048876
-6.9062071 -0.12141691 0.66913944
-7.8474202 0.084493443 0.63122821
4.2601376 -2.5702498 0.77168298
1.2963507 -1.91926 0.73041093
-0.061566059 -1.6333051 0.71366042
-1.4536841 -1.3106999 0.72384024
-3.2516508 -0.91802764 0.7484616
-8.0830116 0.14563832 0.74076748
4.6693072 -2.6534414 0.83844733
3.6854391 -2.430728 0.83601213
3.1530778 -2.3090539 0.89520979
0.92294163 -1.8387681 0.81956744
1.0428588 -1.8509684 0.8578074
-3.0720644 -0.95324337 0.87384737
-3.3546245 -0.88795686 0.86210996
2.5146897 -2.1711707 0.97376734
-0.46434242 -1.5025151 0.97976583
-0.16750804 -1.5835471 0.90563107
-3.5644729 -0.83929563 0.92169321
-4.5432138 -0.62361121 0.95454049
-4.2934418 -0.66714931 0.94888932
2.5081964 -2.1571102 1.0605764
2.0929003 -2.0622211 1.054848
0.90675318 -1.8052428 1.0696368
0.50571883 -1.7061583 1.0970376
0.18172106 -1.648798 1.0480311
3.1485858 -2.2908292 1.1051466
2.6521664 -2.1767974 1.1486454
1.8486605 -1.9930241 1.1897782
-0.11949601 -1.5723108 1.1017526
-1.5145433 -1.2700012 1.1101828
3.7844014 -2.4138823 1.2301601
2.9036098 -2.2199779 1.2669268
3.1401167 -2.260257 1.2599187
1.9088442 -2.0114806 1.2379
2.1184933 -2.0415628 1.262857
0.98985267 -1.8067436 1.2431669
1.2956282 -1.8691632 1.2870209
-0.67657912 -1.4244704 1.25804
-1.2073691 -1.3179626 1.2542624
-4.8715343 -0.51871169 1.268756
-4.7651091 -0.53328168 1.2882802
-6.0701399 -0.25531599 1.2074038
-0.11143251 -1.5412372 1.3208369
-0.49261805 -1.4573227 1.3249452
-1.059983 -1.3438027 1.314826
-0.57653117 -1.4339832 1.4779824
1.610973 -1.9047759 1.5169923
8.0713959 -3.3140841 1.68768
2.9163468 -2.1638582 1.7720723
-8.3211489 0.28278041 1.7325685
4.8295641 -2.5712459 1.8509579
2.7016363 -2.1203167 1.8614857
2.473814 -2.066067 1.8590729
2.0650175 -1.980958 1.8719509
0.7300781 -1.6882937 1.8712597
0.11674216 -1.5487595 1.8363667
-7.1373177 0.042213298 1.8695841
7.3374481 -3.1257463 1.9086406
3.730725 -2.3226819 1.9127661
1.9295834 -1.9388884 1.9056447
0.50430799 -1.6205963 1.9031757
-3.9257572 -0.64734024 1.9044135
8.0985508 -3.2879009 2.019628
0.71989256 -1.6547606 2.0817394
-5.3439713 -0.30421564 2.216903
1.5983545 -1.7850266 2.6438346
-8.6529436 0.4604528 2.663743
