# .PCD v0.7 - Point Cloud Data file format
VERSION 0.7
FIELDS x y z
SIZE 4 4 4
TYPE F F F
COUNT 1 1 1
WIDTH 104
HEIGHT 1
VIEWPOINT 0 0 0 1 0 0 0
POINTS 104
DATA ascii
5.4321051 -14.180689 -4.8524823
3.1571879 -11.282447 -3.4682403
-10.338671 -7.5667391 -3.4607613
2.9441204 -10.995998 -3.3368025
-7.4370322 -8.2034073 -3.3682384
-7.1856833 -8.1411171 -3.2914836
-10.832216 -6.9226928 -3.1726747
3.5897646 -10.47794 -2.9000647
-6.9828153 -7.0835562 -2.6146872
2.3125677 -9.6085205 -2.5844471
1.993791 -9.386692 -2.5064764
-6.9500241 -6.9884052 -2.5560124
-8.181879 -6.6149197 -2.5264349
0.98811436 -9.0513849 -2.4841144
-7.8919616 -6.5939732 -2.4660563
1.8514636 -9.0271168 -2.3198123
1.6533551 -8.9846067 -2.3154702
2.1342335 -9.0196342 -2.277853
-6.9989552 -6.4875612 -2.2681246
-8.1991882 -6.1682634 -2.2612674
-8.8904095 -5.8967204 -2.2253761
1.038908 -8.4714317 -2.1174006
-8.6459637 -5.8835988 -2.1793771
-8.503005 -5.8535094 -2.1360915
4.4435782 -9.2432308 -2.0248079
2.5574303 -8.7434635 -2.0365167
-4.8810592 -6.7952013 -2.0805829
-5.4567509 -6.5883598 -2.0673108
-6.7148838 -6.2829199 -2.0837536
-6.9708633 -6.1810226 -2.0669746
-7.8585148 -5.9541368 -2.0896749
-7.4589806 -5.932045 -2.0029697
3.7179537 -8.9253149 -1.9467471
-5.9763703 -6.2082515 -1.9225459
-7.6850638 -5.8226562 -1.9770133
3.3429885 -8.7356339 -1.885211
1.7569461 -8.2078991 -1.843632
-5.374907 -6.2507539 -1.8402941
-7.3656425 -5.7474971 -1.8805815
-6.9449968 -5.7856445 -1.8298836
2.5466413 -8.3067522 -1.7754841
1.3540699 -7.8692303 -1.7034376
-6.6439347 -5.8288541 -1.7927051
-7.2451634 -5.5470371 -1.7255366
-7.770978 -5.4224548 -1.7406883
0.77039146 -7.5575705 -1.606595
-0.93180084 -7.1029353 -1.6226358
-1.8629944 -6.8637538 -1.6240947
-4.6842957 -6.1526232 -1.6770302
-5.4502926 -5.9187937 -1.649171
-6.1305351 -5.7526731 -1.6764992
-5.7725248 -5.798913 -1.6363602
-7.0064631 -5.5289907 -1.6808538
-6.5847778 -5.5825443 -1.6446973
-6.3692846 -5.5887756 -1.6022477
-7.4189453 -5.4063778 -1.6733607
1.5062035 -7.7305603 -1.5841711
0.7060585 -7.5105286 -1.592702
0.93062532 -7.5586028 -1.5751263
0.23837417 -7.2692442 -1.5121599
-0.55426151 -7.041151 -1.5116221
-4.6331787 -6.0216427 -1.5827125
-5.4692822 -5.7164774 -1.5280735
0.68855739 -7.3074117 -1.466989
-0.047629952 -7.0881023 -1.4586108
-1.4759729 -6.6778011 -1.4458189
-3.370522 -6.2486553 -1.4975797
-4.0310898 -5.943151 -1.4362514
-4.2282324 -5.8284774 -1.406926
-5.0813022 -5.7383628 -1.4818907
2.8791275 -7.6448617 -1.3079872
-5.4853086 -5.426302 -1.3561771
-6.4793415 -5.1316113 -1.3538435
-10.061977 -4.1609116 -1.3655025
5.3992181 -8.2812042 -1.280157
-1.8982937 -6.2764874 -1.279079
-3.6319883 -5.8066254 -1.2910237
-5.2206273 -5.3088703 -1.2460822
-6.2205524 -5.1099758 -1.2904021
-3.3987346 -5.6874285 -1.1797743
-3.0482185 -5.6908712 -1.1158838
-4.6468201 -5.3109884 -1.1456351
-5.2769594 -5.2130847 -1.1876369
-4.9675875 -5.2627764 -1.1754291
-3.2743263 -5.2290978 -0.86841202
7.3518772 -6.2494421 0.28176302
-6.4270787 -0.44880021 1.4944859
-6.3773298 -0.44787338 1.4929643
-7.6745777 -0.026433779 1.5296649
-8.6045208 0.24176897 1.5393455
-8.5561018 0.43517834 1.6663318
8.0479126 -3.5819318 2.0128376
4.2959785 -2.4209023 2.0945115
8.1254692 -3.1536436 2.2954588
-8.5732021 1.3870649 2.2442713
-8.2864113 1.5266211 2.3847136
3.6816316 -1.6143825 2.4796901
3.5238206 -1.4896317 2.5281544
8.4285202 -2.1035786 2.9811087
-7.6809645 2.2422707 2.9081333
7.4723983 -1.7533846 3.0170393
5.0550475 -1.0757222 3.0298958
3.252728 -0.20364273 3.2575672
8.2989864 -1.4956787 3.3122597
