# .PCD v0.7 - Point Cloud Data file format
VERSION 0.7
FIELDS x y z
SIZE 4 4 4
TYPE F F F
COUNT 1 1 1
WIDTH 149
HEIGHT 1
VIEWPOINT 0 0 0 1 0 0 0
POINTS 149
DATA ascii
12.995373 8.2396393 0.6177668
12.342812 8.3843327 0.61830354
-0.8747654 8.3681173 0.78859037
9.8901844 5.327899 0.89167184
-0.47517672 7.3291912 0.8801145
-1.0717208 7.6637373 0.86058724
-6.513752 8.0679426 0.89419639
-3.2974863 8.0597458 0.86236632
-3.1383891 8.0259924 0.85058284
-6.0540547 8.1138372 0.88117826
-6.1346149 8.2156372 0.8707127
-3.7447526 8.2134418 0.84768885
9.7792339 4.6604567 0.95919973
-4.5350857 6.3824878 0.99838299
-4.9477921 6.4773488 0.99999523
-5.1006441 6.5923615 0.99944454
-4.669282 6.5876861 0.98314822
-3.795871 6.5537071 0.99201715
-5.0544863 6.6883874 0.99087018
-1.7576113 6.6115413 0.94726825
-0.53901863 6.6610518 0.93339097
-1.0734501 6.7123423 0.92814386
-4.970541 6.9083447 0.97175872
-1.0863245 6.9431391 0.92224991
-0.5995906 6.9191256 0.90184629
-4.9677911 7.1148167 0.96045244
-5.7228365 7.3125267 0.94349396
-5.4210005 7.3952513 0.93818855
-5.1232119 7.4882107 0.92618483
-6.1280866 7.5400963 0.92861044
-6.1226978 7.8617206 0.91034448
4.5734081 3.7870207 1.0960937
0.20883322 4.7914395 1.0645542
-3.7940097 5.0031204 1.0995314
-2.8853841 5.1012926 1.0900947
-3.2766027 5.2872081 1.0732358
-3.0865443 5.2630553 1.0727036
-7.2816057 5.6833239 1.099226
-7.1294289 5.6321502 1.0998287
-6.1141582 5.6916437 1.0910296
-6.2424655 5.7070909 1.0885599
-5.68784 5.7442913 1.0807501
-6.9291425 5.9059272 1.0775508
-7.50249 6.1246037 1.0650492
-6.8225365 6.131875 1.0585942
-7.0697927 6.2569304 1.0503595
-7.4560637 6.3533134 1.0438583
-5.1457376 6.3234777 1.0111291
-7.4303761 6.4916849 1.0365808
-7.4592919 6.6800318 1.0246656
8.91154 1.8427099 1.188255
9.2501192 1.96911 1.1754613
2.6538815 2.8590317 1.199651
0.95795816 3.12199 1.1878638
1.2748761 3.1223624 1.1961873
-0.28755775 3.4439297 1.1786332
0.6696294 3.4754474 1.1664349
2.1238768 3.6260061 1.1434555
-2.0375345 3.7824097 1.188748
-0.19215509 3.7793274 1.1625326
0.15759411 3.7573688 1.16554
-2.1614141 3.8461351 1.1862534
0.75679934 3.85572 1.1450324
-1.0253134 3.9064946 1.1510922
0.92233026 4.0783629 1.1296723
-2.1579485 4.1301527 1.148824
-0.46562988 4.130136 1.1259115
-0.13614804 4.1924572 1.1165969
0.14878306 4.1185827 1.1270272
-0.94656181 4.2772079 1.1246684
-0.27031827 4.254653 1.1165209
-5.2544479 4.3908334 1.1816638
-5.0363269 4.3703985 1.1771052
-1.0842608 4.3696299 1.1137438
-0.52777964 4.4773388 1.1099743
-4.6693931 4.5776129 1.1618218
-2.9012842 4.6767092 1.1292865
-6.2453728 4.8661394 1.1570935
-3.1307676 4.8334422 1.1188865
-7.0825968 5.066618 1.1502287
-7.3040957 5.2479949 1.1333351
-7.4815779 5.3290491 1.1332935
-6.3211546 5.3078289 1.1178751
-7.2789516 5.4916825 1.1101935
-6.6751995 5.4634295 1.1004179
-6.2262855 5.4359097 1.1050062
-6.9069099 5.5485396 1.1032281
8.6467876 0.66943431 1.2978442
8.5064383 1.1012137 1.2607086
8.498167 1.324327 1.2398798
0.57281148 3.0811577 1.2041414
0.34380949 3.1911216 1.2002093
-0.6104275 3.2018895 1.2103221
2.0294755 0.93080938 1.3659455
-4.4708533 2.352911 1.3302552
-4.371882 2.4649858 1.3135092
8.4637775 -1.6635023 1.4912405
8.6143475 -0.91914266 1.4281356
8.3322077 -2.0783358 1.5166216
8.4278049 -1.8697495 1.511852
-1.4184966 -1.1867681 1.5773437
-1.7259985 -1.0561876 1.5631294
-6.7438803 -0.18157503 1.5791156
-8.2548828 0.69049799 1.527596
3.1462271 -2.4756656 1.6272776
-0.48619729 -1.5477848 1.6053302
-6.1861525 -1.0362744 1.6366589
-7.0599957 -0.68822742 1.6130377
7.5559635 -5.9266529 1.8488247
7.2676072 -7.8282933 2.003464
1.0589982 -7.7731514 2.0730741
2.1571803 -7.3398676 2.0366669
4.9714117 -9.8006105 2.1873908
2.90207 -9.3718004 2.1943517
3.860353 -9.3606491 2.1695738
4.1831026 -9.3252468 2.1620722
1.3184353 -9.1398907 2.1829925
5.4555087 -9.1445999 2.1391838
1.7296517 -9.0478516 2.1786122
2.9639826 -9.0536165 2.1544061
0.97749919 -8.9893208 2.1712725
1.8582838 -8.9036236 2.1706944
2.1330183 -8.9049511 2.1592813
3.7444456 -8.7689943 2.1313963
0.51392704 -8.692873 2.1548243
2.1306109 -8.6274815 2.1381042
1.3878627 -8.5900173 2.1359785
1.9592423 -8.4632969 2.1232812
1.7232931 -8.2857981 2.1165299
1.308656 -8.1250639 2.1087599
2.0796638 -8.1568384 2.1008935
1.4550552 -10.493822 2.2893167
3.149323 -10.389292 2.268827
1.0434785 -10.251575 2.2910476
1.0551373 -10.196906 2.2700951
2.300483 -9.8089094 2.2357941
2.0757117 -9.7327023 2.2255025
2.3282409 -9.7743092 2.2313023
2.4803324 -9.5812311 2.2053232
1.3090541 -9.4246721 2.2094982
1.9943674 -9.4588985 2.2022061
3.6139302 -11.639667 2.3672001
2.9129007 -11.417961 2.3566103
-0.56208944 -10.749665 2.3399186
5.6409106 -12.855301 2.4262667
4.6527781 -12.734342 2.4348879
4.2185326 -12.655468 2.4394903
3.400923 -12.451443 2.4355359
2.7658262 -11.917307 2.4043865
