# .PCD v0.7 - Point Cloud Data file format
VERSION 0.7
FIELDS x y z
SIZE 4 4 4
TYPE F F F
COUNT 1 1 1
WIDTH 63
HEIGHT 1
VIEWPOINT 0 0 0 1 0 0 0
POINTS 63
DATA ascii
-2.6225648 7.2721171 -1.9029135
-2.279 7.3133435 -1.9014862
-2.0965557 7.3008871 -1.9031119
-0.71248561 7.7551899 -1.9306996
-0.87367904 7.9529724 -1.9517277
-2.8605959 6.5117569 -1.83217
-2.8193498 6.6699972 -1.8524396
-2.666502 6.6311207 -1.8499925
-2.3562641 6.7520685 -1.8594213
-2.6657796 6.8939862 -1.8772166
-2.0868888 6.9762406 -1.8682758
-2.7023902 7.0756612 -1.89537
-1.8984029 7.0438166 -1.8729012
-2.454417 7.2737527 -1.8988334
3.6774373 7.4426875 -1.8017855
-2.9791408 6.0763412 -1.7940775
-2.5992684 6.0038118 -1.7827579
-1.7782482 6.1306529 -1.7749438
-1.495645 6.1185522 -1.7644167
3.4261012 6.653163 -1.7264407
2.8750181 7.0397167 -1.7667073
2.1800103 7.102953 -1.7980232
4.0017867 7.1902881 -1.773753
3.7145314 7.2977715 -1.7951304
-1.7840712 4.8234558 -1.640082
-5.8787146 3.3004317 -1.5528421
-5.337328 3.4157114 -1.5587409
-2.5990534 3.8201141 -1.5397446
-2.6645448 2.6893134 -1.438081
-2.3455839 3.1644473 -1.4712231
1.7735686 3.7527463 -1.4477172
1.3806688 3.959094 -1.4801474
2.510812 3.9990132 -1.4744391
-5.6639423 1.3508077 -1.3499045
-1.8250883 1.6894643 -1.3152394
0.93145943 2.1604264 -1.3032038
9.0493975 3.9610851 -1.3313831
-7.7377577 0.32850724 -1.2891352
-7.8699784 0.45769724 -1.2943847
0.28632396 1.4473186 -1.2472652
0.64125693 1.5455816 -1.2586677
0.86716056 1.5041264 -1.2333052
0.86035961 1.7438388 -1.260143
-9.223177 -1.4946272 -1.1314638
-5.0569611 -0.8257041 -1.1108153
-5.2987113 -0.76640677 -1.1271374
-6.6699829 -2.0809298 -1.008352
-4.1932592 -1.783792 -1.0024849
4.2684588 -0.1474019 -1.002607
-1.0782253 -1.8635793 -0.92576826
2.1531868 -1.4612124 -0.90224403
2.2358212 -1.4719298 -0.90669137
1.118443 -0.9268629 -0.98539585
7.2040577 -0.30409524 -0.92756724
5.2750568 -0.12216452 -0.98807567
4.9438462 -1.9253392 -0.80815667
5.1509585 -1.9585297 -0.80074781
4.1672578 -1.7953782 -0.83406895
2.7208867 -1.6204875 -0.87199688
4.2401981 -1.5590305 -0.84782851
-0.077888817 -2.9420171 -0.7912159
0.023789421 -2.9182706 -0.79103619
4.259975 -3.6133931 -0.63463819
