# .PCD v0.7 - Point Cloud Data file format
VERSION 0.7
FIELDS x y z
SIZE 4 4 4
TYPE F F F
COUNT 1 1 1
WIDTH 96
HEIGHT 1
VIEWPOINT 0 0 0 1 0 0 0
POINTS 96
DATA ascii
6.8950653 15.505888 -1.8654904
9.9031296 5.3381195 -1.2881781
3.4509912 6.3580041 -1.2100924
1.5461199 7.9233351 -1.2600518
9.2360039 3.6118703 -1.1728669
9.0436382 3.780272 -1.1791967
5.3468304 5.2906208 -1.1684787
-0.72121483 6.5188289 -1.1113768
-1.2042811 6.6811686 -1.1049297
-1.1535552 6.6735106 -1.1153586
-2.8333995 7.9077544 -1.1466455
-1.6219469 5.0554376 -1.0025911
-1.4664216 5.0448785 -1.0098931
-1.6353178 5.2562485 -1.0167249
-1.1278436 5.3584919 -1.0329245
-1.4266161 5.4840221 -1.0378079
1.2838416 5.6616507 -1.0980351
-1.7151572 6.1569638 -1.0554287
-1.0406966 6.2986879 -1.0879844
-6.7346382 7.6135759 -1.0306062
8.595829 0.94269937 -0.98291397
1.745034 2.4734867 -0.91681629
1.8085504 2.5185962 -0.92085695
-4.2303061 4.507761 -0.90395707
-1.6209503 4.7740593 -0.98535419
-1.4900806 4.725656 -0.97936958
8.3542233 -1.2474146 -0.82742941
6.7072229 -0.29927963 -0.84702641
1.5618653 1.2388668 -0.84030825
1.6283517 1.338028 -0.83310515
-0.10946789 1.5097265 -0.80288208
-0.19969374 1.609175 -0.81091666
-1.512001 1.7903514 -0.8003369
-1.0990688 1.7420347 -0.80806243
-0.85021734 1.7425112 -0.81426358
1.0422429 1.7868372 -0.8486855
0.63690537 1.8268816 -0.83648103
-0.58504081 2.056226 -0.82263076
-0.67860496 2.1333475 -0.82950854
-1.9398074 2.2941463 -0.81526953
1.7244968 2.278029 -0.89151812
-2.690999 2.6569576 -0.82507521
-2.4532089 2.8448133 -0.83190167
-1.1532837 2.8211288 -0.87307739
-2.4512415 3.1320972 -0.86337161
-3.4714849 3.3235316 -0.85004461
-4.6893911 3.4639635 -0.82145679
-5.1212187 3.6139474 -0.83246493
-4.5837889 3.6616752 -0.84242129
-6.7050753 3.9492171 -0.81541908
-6.1394997 3.9267013 -0.8105911
-7.1979895 5.1545048 -0.86476672
-7.128118 5.5665007 -0.89162982
5.7489285 -2.3719647 -0.70770448
6.5727034 -2.2889009 -0.7215414
5.1259999 -2.134706 -0.70256013
5.9322996 -2.0885277 -0.71410364
6.9004107 -1.8533366 -0.76978767
6.9102616 -1.6392871 -0.77433097
-0.80100441 0.77789569 -0.74225712
-3.0920997 0.96298975 -0.70550215
-2.0270913 1.4948425 -0.76856279
-7.6891346 2.7335911 -0.70934582
-7.7373533 2.9499233 -0.72080743
-6.5570545 3.3142142 -0.76045114
-7.059279 3.459928 -0.75834113
5.5345306 -2.513036 -0.68844378
2.1434333 -1.4382551 -0.6776135
1.3194492 -1.3506633 -0.65294337
1.4523332 -1.3578489 -0.65891278
2.078414 -1.3935051 -0.66780001
-2.2169628 -0.97933495 -0.6067245
-2.1107342 -0.86218405 -0.60131848
-1.9304911 -0.8346681 -0.61004782
-1.0405118 -0.86052155 -0.63048732
-2.5089164 -0.69764483 -0.60892653
-2.7598701 -0.53121543 -0.61720371
-3.3184063 -0.33284169 -0.6107589
-3.0773931 -0.33990878 -0.61665201
-2.8846786 -0.37813607 -0.6196996
-1.871963 -0.375148 -0.63764709
-3.1035981 -0.10257158 -0.64459145
-2.5762515 -0.17763487 -0.63406789
-4.1382618 0.59966105 -0.65561521
-3.7526414 0.63315785 -0.6718564
-8.2335434 2.5340264 -0.68150401
-8.163784 2.622221 -0.69220591
3.8600559 -3.3689272 -0.59637433
1.050172 -2.328932 -0.59018582
0.20011042 -2.0597777 -0.59141213
-1.1442651 -1.9700527 -0.56071419
-1.7674472 -1.4176445 -0.57561743
-2.9216709 -1.3159535 -0.56962693
-3.4152057 -1.2058239 -0.56180245
-6.9393311 0.073774494 -0.54767704
-7.2740879 0.13374257 -0.54409146
