# .PCD v0.7 - Point Cloud Data file format
VERSION 0.7
FIELDS x y z
SIZE 4 4 4
TYPE F F F
COUNT 1 1 1
WIDTH 92
HEIGHT 1
VIEWPOINT 0 0 0 1 0 0 0
POINTS 92
DATA ascii
0.49182284 10.844587 0.18698271
0.14454733 10.914774 0.19095474
9.3190165 9.0541601 0.28427446
2.8372631 10.421329 0.2167559
-0.80314112 8.5941877 0.37915492
11.701035 8.5508032 0.33229908
10.453025 8.815053 0.31177866
-4.9005189 8.9736662 0.35828152
-6.8290977 9.2515373 0.34639585
9.6405392 6.3353763 0.49781448
8.6810484 6.5410585 0.47841352
6.6684275 6.6344571 0.48478064
8.751955 6.6295509 0.49029967
-1.5960269 7.114954 0.48702028
2.699846 7.7764149 0.42811885
2.2387891 7.9515424 0.41200295
-6.5104327 8.4266367 0.40688834
1.598588 5.504086 0.59082979
1.621942 5.5336776 0.58671004
-1.9025172 5.6841421 0.5927254
1.6758893 5.6856813 0.58264983
-2.0884416 5.7368755 0.59038281
-2.0933986 5.8942866 0.58289587
-1.8928831 5.8537107 0.58540201
-5.4538183 5.9398603 0.58755803
1.9333489 5.9546041 0.55539906
-5.4193106 6.0892425 0.58324027
-5.2860136 6.0759535 0.58201617
-1.7834368 6.2985539 0.54529691
-7.4447365 6.5628448 0.55471092
2.0316429 6.6826563 0.51378483
-1.8484247 6.9267716 0.50806904
-7.1993871 7.024334 0.50940025
4.7202911 4.0893831 0.69195318
1.3297994 4.3139238 0.68422425
-2.2699463 4.9276366 0.66597545
1.5389621 5.1038241 0.62430197
-2.2246461 5.3059587 0.62722671
-1.9939415 5.3165102 0.63560754
1.5590488 5.3242097 0.60857451
-5.5112171 5.4523382 0.62569141
-2.2172492 5.4232855 0.62549686
-1.9803077 5.4747858 0.61282104
1.5781758 5.4565096 0.60519952
-2.1874542 5.530005 0.61122531
-7.5979242 5.6811972 0.62292564
-5.51858 5.6746674 0.61447573
-2.1571708 5.6340027 0.60635346
-1.9164298 5.6562314 0.6059835
-5.3395643 5.7292557 0.6161443
-7.3625555 6.0004025 0.60315341
7.6864643 2.7193875 0.78783202
4.3759861 3.4560328 0.74784124
4.6453695 3.6985168 0.72678316
1.4335868 3.9396331 0.71405101
1.2769892 4.0626626 0.7129882
-4.5145497 1.916013 0.89707971
-4.4851713 2.4855609 0.8570354
-4.2769861 2.4938202 0.85407472
8.6096554 0.30687386 0.95477587
8.549839 1.0146847 0.9088937
-1.4250534 1.6156315 0.90381771
8.5480404 -1.154776 1.0699663
-1.6852077 -0.71110588 1.0930437
-4.4424019 -0.57571661 1.0877743
-4.3583403 -0.51780748 1.0777204
-6.2731495 -0.25783056 1.0713166
8.1586647 -0.29205188 1.0178759
-7.4170952 -0.11193629 1.0724869
-5.7623205 -0.15469192 1.0554881
-7.7174025 -0.072587729 1.055239
1.5900986 -2.0268903 1.1675365
8.4132614 -2.0983706 1.1386592
-4.2926216 -0.81624115 1.1017876
-3.9042466 -0.83113742 1.1031083
6.578393 -7.365644 1.5462146
1.7388694 -8.7948313 1.687139
1.9532923 -8.6497211 1.6706944
2.0440199 -8.6248055 1.6657932
1.9139907 -8.4793367 1.6522348
2.0200987 -8.4020081 1.6521946
6.7676716 -9.5733881 1.7244856
2.5027359 -11.318081 1.8735673
2.133544 -11.282644 1.8790219
1.7177436 -11.162336 1.8668065
0.88945663 -11.050193 1.8625317
0.50659132 -10.92131 1.8608452
6.0061555 -12.994109 1.9801354
3.4191287 -12.533585 1.9628848
4.6854515 -11.99778 1.911353
-0.63656271 -11.647899 1.9159218
2.2313385 -14.847225 2.1496637
