# .PCD v0.7 - Point Cloud Data file format
VERSION 0.7
FIELDS x y z
SIZE 4 4 4
TYPE F F F
COUNT 1 1 1
WIDTH 114
HEIGHT 1
VIEWPOINT 0 0 0 1 0 0 0
POINTS 114
DATA ascii
5.3269911 6.164197 -1.5036185
4.0990849 6.3290195 -1.5113145
4.4178295 6.3968239 -1.5321145
2.4515851 7.0509653 -1.5805877
5.0535669 5.0962481 -1.3641282
-2.9050188 6.0680885 -1.370235
8.8946304 3.7593286 -1.2325802
-1.6733123 4.8861022 -1.2059076
-5.6794987 5.9327073 -1.2859169
9.1051979 2.9944696 -1.1331209
8.6280661 3.1225951 -1.1389377
5.4526262 3.4619761 -1.1382143
-3.0976357 4.3302498 -1.1144364
1.8940957 4.3049698 -1.189904
8.0506496 2.2795253 -1.0228069
8.2235889 2.499779 -1.0500308
8.0994654 1.5738964 -0.91377771
7.9475927 1.8748872 -0.94769645
-2.3199477 2.715169 -0.9077965
-2.3523784 3.119765 -0.95770335
-7.7602024 3.7066588 -0.94988132
1.5201988 1.6537945 -0.81951571
0.5024392 1.7134728 -0.8125006
-0.14302298 1.8881054 -0.81769419
-1.8248593 1.9246862 -0.80657911
-1.6712329 1.9558748 -0.81419873
-1.3395276 1.9414731 -0.81000197
-0.95133406 1.9120604 -0.80783027
-0.64982969 1.9144797 -0.81805265
-0.35589656 1.9069974 -0.82267022
-1.5261747 2.0905428 -0.83510506
-0.27143282 2.0036099 -0.82967925
-1.3314564 2.1562614 -0.83608985
0.93874967 2.1453254 -0.87724543
1.18908 2.1194582 -0.87906313
1.5417014 2.1610494 -0.89327574
-2.2529857 2.2433479 -0.83659613
-1.7198451 2.264132 -0.83933794
-0.92336422 2.2091489 -0.84965813
-0.14111926 2.2880554 -0.87494904
0.66955614 2.2882836 -0.89552963
0.93921518 2.2804646 -0.8876462
-2.7728219 2.5022402 -0.86894166
-2.5179167 2.5304992 -0.86796218
-0.27560925 0.99329668 -0.7001816
0.11203451 0.97754329 -0.70512354
0.081649944 1.0959088 -0.72350174
-1.108476 1.1918889 -0.70921314
2.8369067 1.1230571 -0.75507051
0.86692679 1.2859725 -0.75195521
-1.4782064 1.336004 -0.72067517
-1.2396414 1.3355787 -0.73007345
-1.9515202 1.5292679 -0.73305678
-1.7640338 1.5270908 -0.73874527
0.55175352 1.523913 -0.77612829
-2.0755999 1.6959223 -0.7566843
-7.3134985 2.0396943 -0.72325468
8.1810894 -0.37044644 -0.63910669
5.2511191 -0.17350319 -0.63188469
5.7115531 -0.18976881 -0.63166273
4.9361801 -0.069120213 -0.636801
0.32805428 0.48258728 -0.63607991
0.79646134 0.44741589 -0.62540901
1.379156 0.56915998 -0.66026998
0.84102315 0.73104239 -0.67384344
1.7537014 0.72026277 -0.6829685
1.1302375 0.84247631 -0.69674015
-1.2799454 1.0781317 -0.68969852
-0.88097417 1.1495116 -0.6961109
-6.2601204 1.4889199 -0.66479886
8.5079079 -1.2905389 -0.516047
8.5472546 -1.0825236 -0.5520463
8.4798241 -0.91282755 -0.56673366
8.1585588 -0.87887919 -0.57465613
8.2383575 -0.88864779 -0.56421822
-2.696243 0.2319681 -0.54149938
-3.6548352 0.51095623 -0.57499623
-8.5381374 0.91731799 -0.53843296
8.4537191 -1.87345 -0.44435632
3.4700174 -1.5928305 -0.40271872
4.1716404 -1.4277213 -0.43073687
4.3187132 -1.4880878 -0.43381944
2.8200903 -1.1620467 -0.44399521
0.88012755 -0.96792048 -0.44569582
-4.4181323 -0.4221268 -0.41771597
-4.308732 -0.32405818 -0.43973577
-3.73701 -0.3279402 -0.45793441
-6.7146854 0.042045984 -0.45475441
-8.691102 0.54906154 -0.49662986
6.9013367 -2.6234422 -0.30817586
4.8972502 -2.4299927 -0.30787522
4.6816802 -2.2938461 -0.32156301
5.0384684 -2.222631 -0.33966687
1.4648228 -2.02565 -0.30493355
2.2784791 -2.0557566 -0.30262643
3.6708395 -2.0134945 -0.34667563
4.6302123 -1.8321726 -0.37535933
-0.28323278 -1.7304935 -0.3135255
0.31743604 -1.7486029 -0.32911697
0.45162243 -1.7824723 -0.30830434
0.70024467 -1.7625148 -0.31752694
-0.13844082 -1.4929038 -0.34667575
-1.1025723 -1.3070033 -0.35170874
-2.7015924 -1.2171801 -0.3410466
-0.35918522 -1.1448486 -0.38486287
-3.7710252 -0.81757832 -0.37558764
-3.7680173 -0.73822999 -0.39673042
6.4522753 -2.7096272 -0.29689038
5.5122652 -2.5007603 -0.29437113
-0.46975076 -1.8969202 -0.28598166
7.346509 -6.78127 0.26759183
3.2810097 -6.1521544 0.24903497
6.2390785 -11.888971 0.99372673
2.1243114 -11.348344 0.99720967
