# .PCD v0.7 - Point Cloud Data file format
VERSION 0.7
FIELDS x y z
SIZE 4 4 4
TYPE F F F
COUNT 1 1 1
WIDTH 87
HEIGHT 1
VIEWPOINT 0 0 0 1 0 0 0
POINTS 87
DATA ascii
-0.67523813 7.061522 -1.9022856
-2.1778748 7.1374741 -1.9092231
-2.1307192 7.5797782 -1.9404489
-0.46844363 7.8015223 -1.9716033
-0.084599018 5.8074112 -1.8120393
-2.3192434 5.9908981 -1.826329
-2.8294311 6.2830467 -1.8474282
-1.9612283 6.375659 -1.8541613
-1.1238158 6.3179674 -1.8546073
-2.0103106 6.4127626 -1.8596252
-0.1914168 6.4828911 -1.8664453
-1.01297 6.5138073 -1.8614272
-0.76103663 6.6688747 -1.8753997
1.9583669 6.6900711 -1.874432
-1.9583138 6.7192211 -1.8830612
7.8618813 4.594676 -1.7150333
8.1784449 4.6317272 -1.7134423
-2.5098338 4.7168593 -1.7220958
-2.5009661 5.075417 -1.7505124
-2.1804504 5.2979412 -1.7707472
2.0904396 5.495429 -1.7743273
-2.4323597 5.6477833 -1.7991422
-5.456275 3.0956025 -1.606464
-5.860044 3.1001742 -1.6128609
-5.3315716 3.146976 -1.6120999
6.2409368 3.2819438 -1.6140947
-6.0988169 3.3776698 -1.633691
8.9925747 3.5639381 -1.6209142
6.9233522 3.6993122 -1.6361879
1.1103723 3.7913175 -1.6546135
1.7463841 3.7532125 -1.6474048
-6.1611471 4.0870352 -1.6909087
1.1390911 4.1600723 -1.6779954
7.349865 4.1060677 -1.6720866
-1.5056918 4.3669004 -1.6957738
0.069903851 4.4429564 -1.6982311
-4.7325239 1.8731817 -1.5071762
-3.5243223 1.9045045 -1.5138222
-3.7283139 2.1225853 -1.5317559
-3.5185378 2.1018004 -1.532351
-4.1088314 2.2679195 -1.544754
-3.2925496 2.2963226 -1.5473402
-2.9480472 2.2666161 -1.5471618
-4.6629429 2.3310566 -1.545155
-4.2477565 2.5567253 -1.5645963
-3.6587045 2.5051003 -1.561798
-3.5246997 0.40499741 -1.4008209
0.52742237 1.0112723 -1.4379377
-3.8194523 1.3159944 -1.4743261
-5.5804291 -0.65590441 -1.3156838
-4.0737247 -0.6825794 -1.3077072
5.7610884 -0.62009436 -1.3132097
8.2958508 -0.64672673 -1.3124821
-4.6690435 -0.56716102 -1.3168286
8.1528282 -0.59337884 -1.3062627
-1.8519031 -0.43167692 -1.3323081
4.448843 -0.47893757 -1.3265339
-3.7959499 -0.35786107 -1.3386545
4.1423478 -0.31669763 -1.3318429
-3.1172228 -0.10299294 -1.3556275
-6.2924151 -2.0359309 -1.2045906
6.5309138 -1.939997 -1.2117682
-6.3167005 -1.7067729 -1.2330335
-5.9438038 -1.7689528 -1.2261549
3.9274697 -1.715466 -1.2264521
-5.5213599 -1.6970067 -1.2347405
-3.8559976 -1.6133769 -1.2312212
2.6507432 -1.6233891 -1.2321138
2.9671412 -1.6704363 -1.2304821
3.3132992 -1.6897192 -1.2217231
4.4906497 -1.6841722 -1.2347143
8.1918488 -1.601956 -1.2272319
8.283144 -1.5078232 -1.233839
3.4732499 -1.4376101 -1.2443899
3.7236254 -1.4681406 -1.2408192
8.4262428 -1.4994836 -1.2386038
2.2712517 -1.3867075 -1.2457334
3.143333 -1.3781604 -1.2450271
7.9615722 -1.2271464 -1.2587516
-4.0676436 -0.88533354 -1.2931248
6.7192035 -2.4357328 -1.1590594
7.0972319 -2.3580861 -1.1696373
6.9732065 -2.264864 -1.1807058
6.7588906 -2.186605 -1.1852894
6.3627744 -2.0569425 -1.1965121
7.2272797 -2.0763054 -1.1950639
-1.230943 -3.6181841 -1.0816157
