# .PCD v0.7 - Point Cloud Data file format
VERSION 0.7
FIELDS x y z
SIZE 4 4 4
TYPE F F F
COUNT 1 1 1
WIDTH 79
HEIGHT 1
VIEWPOINT 0 0 0 1 0 0 0
POINTS 79
DATA ascii
-1.9412867 7.6759634 -1.9514751
-2.6644359 7.7585306 -1.9313543
-2.5151868 7.7481346 -1.9246044
1.7854656 6.0882468 -1.8253399
-2.8193035 6.8738918 -1.7432802
8.3942223 3.4870281 -1.6339748
8.6965103 3.4625525 -1.635628
7.4013615 3.9787822 -1.674966
3.3251348 4.7802224 -1.6389799
0.03657639 5.4348783 -1.5978806
2.4291673 4.168118 -1.4666003
-1.730726 5.238224 -1.4701744
-6.7711477 6.605072 -1.4945502
-5.5214381 5.1615138 -1.2692128
1.8108803 2.5015686 -1.112862
2.936482 1.7945944 -1.0251259
3.3464494 1.7396104 -1.0480207
1.6333994 2.1240101 -1.0265794
-2.3248649 3.1751056 -1.0491945
-2.3431993 3.2207503 -1.059847
1.5569959 1.5131712 -0.90789866
-1.426204 2.607903 -0.97988075
4.9731307 0.51101142 -0.87750709
2.3419988 1.0838695 -0.85629201
-1.4369574 1.886752 -0.82501543
-6.026999 3.1964574 -0.85587823
4.2657423 -0.066615559 -0.73200488
1.4798232 0.75441772 -0.76170397
-0.69858038 1.1442282 -0.72846317
-2.9106827 1.7315921 -0.72793376
-7.5553761 2.8701062 -0.73398733
7.0300894 -1.2944833 -0.63795632
7.0614758 -1.1776795 -0.66193086
7.2375541 -1.1665561 -0.65825808
4.4894953 -0.38856193 -0.68337923
8.1214733 -2.0971627 -0.52855062
7.5864058 -2.5031347 -0.42252141
7.3764319 -2.3373795 -0.44777679
7.0288172 -2.1247494 -0.46296841
5.7078047 -2.0515513 -0.42499533
5.6458359 -1.9974166 -0.42706278
2.1748292 -1.1956675 -0.40410352
-8.4415855 1.730968 -0.4679288
6.2738562 -2.6652224 -0.33142209
6.0993853 -2.5622602 -0.32753628
4.7230806 -2.1679838 -0.34802806
4.5670958 -2.0864792 -0.35974115
5.2520533 -2.0829325 -0.37740189
0.91309911 -1.4232098 -0.30848172
1.0306537 -1.4313962 -0.30906749
2.2465143 -1.415458 -0.36095902
1.0304857 -1.2599014 -0.33319944
-0.11401603 -1.1231043 -0.30312461
0.52881646 -1.117823 -0.33335084
7.1445789 -3.2088437 -0.25808001
3.7287965 -2.2955308 -0.27566147
-0.35158789 -1.3882792 -0.25186282
-0.84793556 -1.2539711 -0.24836296
-1.3268461 -1.1696017 -0.24780564
-1.5768842 -1.0370358 -0.26118931
-1.0950133 -1.0717254 -0.27191401
-1.0381471 -0.98758584 -0.28307408
-3.1006498 -0.87181246 -0.21566941
-2.509459 -0.7064302 -0.26878321
-3.817647 -0.50647545 -0.25455385
-3.7291245 -0.43972734 -0.27497104
-3.7780747 -0.35156992 -0.27853945
-4.5088434 -0.18701875 -0.27372926
-8.6995821 0.72697568 -0.24904904
-8.6742115 0.84755069 -0.27485257
-0.46484506 -1.9338405 -0.14160559
-2.3379617 -1.1528633 -0.19089091
-5.9066629 -0.37001985 -0.17852919
-8.5433216 0.35830063 -0.1881834
-7.821032 -0.36211681 -0.074956015
6.9761648 -6.2777195 0.34184778
2.4311712 -6.6074452 0.63339299
6.3415127 -11.387136 1.389576
6.3248577 -11.021547 1.3118093
