# .PCD v0.7 - Point Cloud Data file format
VERSION 0.7
FIELDS x y z
SIZE 4 4 4
TYPE F F F
COUNT 1 1 1
WIDTH 93
HEIGHT 1
VIEWPOINT 0 0 0 1 0 0 0
POINTS 93
DATA ascii
-6.9666777 8.438859 0.37414533
-6.4410329 9.2281628 0.319244
-4.659874 9.2526054 0.37788236
-7.1184902 7.2972035 0.48108172
-6.834362 7.3653927 0.48556995
-6.7606692 7.4784021 0.46508887
-7.4089818 6.875803 0.50442719
-7.0220909 6.8856282 0.51041061
-4.9943681 7.1827564 0.54987246
-1.9409308 7.7435646 0.57678145
-2.4255395 7.8135028 0.55871117
-0.77401829 8.5212612 0.53147745
-7.4397869 4.8546443 0.67836487
-7.8076878 4.965199 0.65888822
-5.6567636 5.1911769 0.69739652
-5.3888607 5.3839254 0.68974137
-5.351953 5.525907 0.67162514
-5.4408774 6.0726399 0.62744194
-5.2178254 6.2706137 0.61390102
2.1925268 7.9181719 0.66915131
6.7447371 6.5861697 0.89489442
-8.5151072 1.3474474 0.95570183
-0.89526629 3.2838619 0.99810344
-1.3521008 3.3828254 0.97434527
5.7217436 6.170167 0.91004026
5.4766202 6.2182188 0.90121377
7.7995305 6.3408241 0.94464535
9.6880074 6.394896 0.99865592
9.3140984 6.4854603 0.97945583
9.5239944 6.4185939 0.98291397
-8.1473627 -0.095008284 1.0892863
-7.8342571 0.074303858 1.0924224
-8.1616116 0.41186309 1.0563104
2.2546527 2.9378982 1.0946451
2.0961373 3.0775433 1.0931754
1.8796275 3.4255829 1.0417308
9.2581635 5.1200738 1.097041
8.9350643 5.3605804 1.070792
9.8577175 5.5632424 1.0618856
8.776206 5.7209349 1.035664
9.3276491 5.7173281 1.0519335
-5.7496834 -0.34372401 1.1760135
-5.8826551 -0.070458055 1.1518701
-6.3515134 0.069194674 1.1325961
-1.1491476 1.7773726 1.1170022
2.1166496 2.5567551 1.1304049
2.0653393 2.8349133 1.1056056
9.1216364 4.7469735 1.1242945
-4.2057333 -1.2163124 1.2950125
-4.687561 -0.39120087 1.2187865
2.056354 1.0515182 1.2710111
6.840363 2.8297889 1.2299935
-1.7161143 -1.0421948 1.3513813
8.2591667 1.5951749 1.3739374
8.3254385 1.6828836 1.3732502
6.8643637 1.7135561 1.3227664
8.0924244 1.7418126 1.3584034
8.1621246 2.0446396 1.3424366
8.5391026 2.0526843 1.3370059
5.3524227 -0.032882158 1.450666
2.5086951 -2.214705 1.5533102
2.8059185 -2.256844 1.565487
1.2171774 -7.5670962 1.9933589
2.1159723 -8.2907372 2.0826864
3.3602788 -8.0851212 2.0995426
7.4535561 -6.3227463 2.0484846
1.2593806 -9.8897648 2.1982572
3.3179402 -9.0854034 2.1823053
3.6822617 -8.901886 2.1835256
4.1386428 -8.9568739 2.1888835
4.626771 -8.7636099 2.1847725
4.2711987 -8.6381874 2.1739836
3.7300305 -8.5538406 2.1530838
3.9785326 -8.4654541 2.1487987
4.2248292 -8.2086315 2.1335707
4.5862179 -8.2879543 2.1351008
3.8228483 -8.1660595 2.1126084
4.4661512 -8.136014 2.133544
6.4326334 -8.0637445 2.1689281
2.9731414 -10.532489 2.2906346
3.41504 -10.218419 2.2768025
2.9708877 -10.139576 2.2724977
3.4441178 -9.8130445 2.2446489
3.3257797 -9.4254637 2.205337
4.0682812 -11.113931 2.3782601
3.4935527 -11.066299 2.3586102
3.1575823 -10.973755 2.3445673
4.0713539 -10.941435 2.3570623
4.3075619 -10.293329 2.3105414
3.0381358 -12.325777 2.4591537
3.1751125 -11.826909 2.4160657
3.3677921 -11.707755 2.4076271
3.846566 -11.614151 2.4164903
