# .PCD v0.7 - Point Cloud Data file format
VERSION 0.7
FIELDS x y z
SIZE 4 4 4
TYPE F F F
COUNT 1 1 1
WIDTH 59
HEIGHT 1
VIEWPOINT 0 0 0 1 0 0 0
POINTS 59
DATA ascii
7.6190314 4.2701225 -1.6247753
6.9378204 3.5045211 -1.5303869
6.0163698 5.9538794 -1.4180779
5.6892371 -0.95186818 -1.3271898
5.8128176 -0.63633204 -1.3485218
5.6130977 -0.56805211 -1.3251557
5.7194824 6.0914769 -1.3744047
5.4877906 -1.2701278 -1.2992848
5.3148613 -0.49823776 -1.2850032
5.15098 -0.28602657 -1.2623588
5.3288698 -0.050804783 -1.2854222
4.7707977 3.4859571 -1.2414876
4.8477511 3.7746255 -1.2432356
4.46632 -1.6494844 -1.1685222
4.7319269 -1.6499695 -1.1956636
3.058624 2.415782 -1.01016
3.0809598 6.7378006 -1.036531
3.3660355 7.4371014 -1.0674503
1.7805758 -1.3535086 -0.81114107
1.877764 0.65125871 -0.844836
2.1857736 1.7660605 -0.89031422
1.032143 -2.4966087 -0.71220195
1.2781665 -1.4652615 -0.73933828
1.4166913 -1.4602652 -0.76897049
0.71329796 -2.5190635 -0.65405202
0.55018127 -1.023934 -0.64609456
-0.014040357 7.8734336 -0.62841284
0.26003563 10.863335 -0.694085
-0.085242569 0.95548922 -0.57896394
-0.67119062 2.5598536 -0.5015111
-0.8988983 7.564147 -0.51318437
-1.4504418 -1.2731042 -0.37739807
-3.0532327 6.0315566 -0.21356283
-2.8681395 6.130579 -0.24546847
-3.1196814 1.5932047 -0.19071664
-3.1942301 1.8223472 -0.17034416
-3.6630759 4.5593567 -0.12461358
-3.8869421 -0.9373399 -0.07273379
-3.8716116 0.68845475 -0.079554111
-5.7758808 -0.99789768 0.18579829
-5.7970915 3.4045544 0.15798685
-6.4640074 -0.4282088 0.26551718
-6.9168921 6.8891964 0.29507247
-6.8619437 7.0713859 0.28114358
-6.8207273 7.509984 0.27797469
-6.7662315 7.5098991 0.26726568
-6.748486 8.2654743 0.25516993
-6.6400232 8.4303722 0.24232997
-6.9130297 -0.25887078 0.33299908
-7.1431422 5.7032499 0.32172161
-7.0233221 6.3278604 0.31504387
-7.0309715 6.4462795 0.31053615
-6.9743757 6.5511198 0.30361453
-6.9510984 6.699851 0.30070645
-7.2850685 6.917697 0.33143651
-8.1939125 0.45824987 0.49053705
-8.1914902 2.6945367 0.47733778
-8.4977188 0.24801454 0.53337896
-9.9393158 17.882401 0.61082315
