# .PCD v0.7 - Point Cloud Data file format
VERSION 0.7
FIELDS x y z
SIZE 4 4 4
TYPE F F F
COUNT 1 1 1
WIDTH 112
HEIGHT 1
VIEWPOINT 0 0 0 1 0 0 0
POINTS 112
DATA ascii
-5.7754107 -0.71715033 -1.167526
1.08866 -2.0202477 -0.24151033
7.4967542 -3.3211169 -0.12703687
1.8307436 -2.1575549 -0.14984328
1.2050687 -2.017571 -0.10784404
-3.4662423 -1.0595243 -0.12064829
7.1066408 -3.2269585 0.096551269
-1.4653963 -1.4379605 0.069337495
2.3142636 -2.2244842 0.16198251
-3.9449148 -0.92321491 0.16230541
-4.5123434 -0.80464602 0.18815073
7.4846787 -3.2752264 0.26672742
2.8949914 -2.3333008 0.2361321
2.3597453 -2.219265 0.23719567
1.9096195 -2.1274333 0.23871288
2.1472704 -2.1691787 0.25901854
-0.50101846 -1.6043627 0.38093126
-5.3091869 -0.62004215 0.31252173
7.3489523 -3.2124863 0.47091308
2.7869396 -2.2894077 0.43283916
2.1375141 -2.1556602 0.43507719
-1.429762 -1.4090463 0.47395688
-5.1544991 -0.63336563 0.46879631
7.4936047 -3.2462387 0.55389625
3.2135355 -2.3459806 0.54335558
-0.23313271 -1.6315978 0.54505157
-2.0707572 -1.2565691 0.52054006
-2.9484859 -1.0794138 0.55087942
-4.647243 -0.72698891 0.5336287
-6.8739734 -0.25701839 0.54952168
7.8051257 -3.3048122 0.62106562
0.7313 -1.8208535 0.6411441
0.10030215 -1.6954852 0.63878566
-2.977843 -1.0679158 0.6538986
-3.9236624 -0.85870671 0.6501801
-5.0844002 -0.6267426 0.66542405
7.5089579 -3.2283986 0.72871161
6.5409417 -3.0194321 0.71761644
-1.0945466 -1.4316058 0.72864079
-4.9629612 -0.64766866 0.7164613
-7.8704782 -0.045474201 0.70171827
-8.3788967 0.058241785 0.72856158
4.319931 -2.5434182 0.84775901
4.5015383 -2.5830355 0.83727109
3.5425787 -2.3834984 0.87216109
-2.0439548 -1.2294357 0.80689442
-3.884048 -0.83980083 0.85708845
-5.9207191 -0.4278217 0.86472434
-6.9181409 -0.22038183 0.89946616
-7.0748181 -0.17691335 0.89114374
-7.8744402 -0.023800135 0.83592117
5.7268558 -2.8300459 0.97975779
-1.6757482 -1.2851105 0.95056129
-3.7680068 -0.87034726 0.93239748
-6.491106 -0.30334422 0.92231715
-6.6452861 -0.25604898 0.93709165
6.100369 -2.8907313 1.0753319
3.7658267 -2.4108727 1.0230204
4.1466575 -2.4861894 1.07526
3.5340703 -2.3565512 1.0931075
3.6850808 -2.3821967 1.0864444
-1.6645544 -1.2774767 1.0897949
-3.0386119 -1.0016322 1.038452
-3.38182 -0.91361761 1.0817492
-3.7317944 -0.85227042 1.0625428
-3.5453246 -0.89735305 1.0438538
-6.1533456 -0.34596661 1.0862952
-6.7090383 -0.23569115 1.0517097
1.0962863 -1.8474963 1.1563809
0.30560955 -1.6901705 1.115599
3.3112807 -2.2867346 1.2516885
1.1039968 -1.8361841 1.2489629
-3.6899624 -0.83474696 1.2345341
-7.671957 -0.015681207 1.2176259
-0.25091141 -1.5482237 1.3188792
-1.3382503 -1.299827 1.4407487
-8.1460419 0.12933844 1.5340707
0.06531024 -1.5634272 1.7219439
-6.9341965 -0.10078667 1.7395117
-6.5709114 -0.16739103 1.7636434
-6.7215614 -0.13407388 1.8512647
-7.2794123 -0.023171995 1.8153524
6.8562512 -2.9382093 1.9430964
7.1189699 -2.9777141 1.9856727
4.1341023 -2.3686523 1.9381769
7.3189483 -3.011327 2.0393381
7.6978302 -3.0967951 2.0088713
6.3756275 -2.8257961 2.0424216
6.6763315 -2.8696637 2.0792396
5.1343536 -2.5575447 2.061584
4.1194763 -2.3499279 2.0841022
4.6623459 -2.4565363 2.1014719
-4.9596896 -0.46656629 2.1393747
-8.6509295 0.30638978 2.1477129
-4.5862856 -0.52806121 2.2989402
-8.689991 0.32062137 2.2197804
1.516243 -1.767004 2.3776293
4.5329628 -2.3798099 2.4581835
3.7170951 -2.2070837 2.4743829
2.1151156 -1.8762507 2.4538732
1.6631634 -1.7993679 2.4214618
1.1344965 -1.6913855 2.4164016
-4.1863375 -0.59466553 2.428628
2.7558131 -2.0115781 2.5456495
2.4971561 -1.9562228 2.5054371
1.9603906 -1.8468122 2.5104871
1.4797676 -1.7540661 2.5011339
3.0088341 -2.0567398 2.6355271
5.0501842 -2.4544115 2.7401524
3.3360503 -2.1069894 2.7410686
5.063652 -2.4471939 2.8938398
1.9781754 -1.8095534 2.8987923
