# .PCD v0.7 - Point Cloud Data file format
VERSION 0.7
FIELDS x y z
SIZE 4 4 4
TYPE F F F
COUNT 1 1 1
WIDTH 60
HEIGHT 1
VIEWPOINT 0 0 0 1 0 0 0
POINTS 60
DATA ascii
4.992897 6.4423447 2.5967171
-5.8296065 4.2724419 2.7661846
-6.1321311 4.4782009 2.7390189
-7.9316301 2.6927705 2.8971567
-7.8006163 2.8470082 2.8841789
-7.8165293 3.0111699 2.863863
1.9771386 3.2207966 2.8661885
-7.744956 3.3783913 2.8385367
-7.4135284 3.3235028 2.854243
-4.139976 3.5340142 2.8221073
-7.8483882 1.7557619 2.9815307
4.6341677 1.7906742 2.9942408
7.3338394 1.8387071 2.9951193
5.8531489 1.9451749 2.9985206
-7.7024918 2.1880987 2.9399652
6.9557042 2.1159108 2.973048
7.289834 2.1503696 2.972307
-3.8183188 2.5015693 2.9164877
-7.1162648 2.604717 2.9037085
-6.8520641 0.87789232 3.0538256
7.00352 1.0812943 3.0727901
-7.7129712 1.4685752 3.0155602
8.2096262 1.4206834 3.0477128
3.8198099 -0.49094188 3.1994612
4.0518417 -0.47679985 3.1983888
7.5037479 -0.41286609 3.1976216
4.5456691 -0.3350895 3.1971602
4.7025671 -0.30899453 3.1807139
4.2173376 -0.16934454 3.1707978
7.4711504 -0.12150169 3.1706667
7.8558111 -0.18345633 3.1807914
8.6871605 -0.15778841 3.184592
4.6801844 -0.00073808432 3.1629796
4.3037949 0.071036838 3.1648388
4.4879494 0.046625547 3.1607213
4.6602411 0.0094841104 3.1636286
3.6192651 0.17887783 3.147763
3.9405153 0.16948679 3.1549916
4.0991755 0.11185443 3.1580391
4.646101 0.21541414 3.1335511
7.5102015 0.22386199 3.1477358
7.3494382 0.30460238 3.1312819
7.6696091 0.41650036 3.1210542
7.0212245 0.50147486 3.1144624
7.2910981 0.52550852 3.1138496
3.5095887 0.6456241 3.1113067
7.3563876 -1.4454443 3.2957201
6.6969891 -1.3321397 3.2808065
7.555088 -1.2676394 3.2751389
8.6218109 -1.2864072 3.2828121
6.8873196 -1.1434195 3.2771826
7.3115516 -1.1044964 3.2697315
5.0302019 -1.0180212 3.249897
8.3230419 -0.74537849 3.2406337
6.7279692 -0.64334863 3.2227602
6.8831534 -0.64652944 3.2318292
7.3074255 -0.66495657 3.2283533
7.541687 -0.69193161 3.2379973
7.6477699 -5.0709782 3.6298034
7.3323355 -4.9815202 3.6138041
