# .PCD v0.7 - Point Cloud Data file format
VERSION 0.7
FIELDS x y z
SIZE 4 4 4
TYPE F F F
COUNT 1 1 1
WIDTH 71
HEIGHT 1
VIEWPOINT 0 0 0 1 0 0 0
POINTS 71
DATA ascii
6.9082432 17.452284 -1.8443613
-2.3850222 7.8085976 -1.6760588
-6.4718404 2.8099661 -1.5356129
-5.4256392 3.4418223 -1.5049417
-6.0192132 3.8606174 -1.5978553
-5.4618654 3.1073709 -1.482563
-3.1737828 4.3583279 -1.4037299
-0.25475717 7.6960297 -1.4854872
0.85007703 8.0861921 -1.4283797
-7.0544748 0.14511287 -1.3232758
-6.0566025 1.8144953 -1.3901131
-5.3040533 1.9002098 -1.3437659
-5.3234453 2.3294616 -1.3791466
-3.4934428 3.3464189 -1.3269159
-1.4980367 4.9737616 -1.3114195
0.061595954 6.471879 -1.3358741
-0.19291687 6.942409 -1.3985763
-3.3715024 2.9253783 -1.2682828
-3.1241865 3.0119972 -1.2673702
-3.3163996 1.4519726 -1.1237599
3.9000764 6.6177425 -1.0249965
-4.9450932 -1.4900845 -0.97067201
-2.6868005 -0.12356496 -0.90817857
0.29110244 2.3711457 -0.90822852
0.10815877 2.4678078 -0.9244082
-0.38667172 2.5151544 -0.98116082
-4.8802567 -2.3480945 -0.88742495
-1.4090346 0.89647561 -0.89744413
5.7067814 6.2033415 -0.82052994
0.53463048 1.1405289 -0.76957345
-2.0107555 -1.8748646 -0.67450309
2.1661739 1.8518003 -0.69092071
2.7192581 1.9349658 -0.65358162
5.1087189 4.3142757 -0.69429219
-0.97631431 -2.0486197 -0.57509309
5.7732115 3.170181 -0.506648
0.72678798 -1.8622541 -0.43856317
4.4911327 1.1615844 -0.43126351
4.6902676 1.2757783 -0.41291216
4.5414419 1.3544792 -0.43272531
6.1363535 3.0983138 -0.47761822
1.8781638 -1.8445743 -0.34698403
5.329565 1.6503239 -0.39657852
2.738759 -1.8919088 -0.267304
2.9030409 -1.8412496 -0.25231642
3.3298268 -1.6875081 -0.23689556
3.4663815 -1.5869975 -0.23236755
2.9053311 -1.4805485 -0.2952801
9.5254126 3.6568906 -0.23997363
4.4937348 -1.4618657 -0.16591284
7.4145575 0.52737057 -0.10431661
8.730257 1.496048 -0.10419024
8.7661877 1.7443609 -0.11565832
8.4538918 0.42315835 -0.011422869
3.6160161 -3.8552279 0.0091529936
5.8418646 -2.4850683 0.046770155
6.9799261 -1.2752485 0.027414937
8.2950497 -0.52272391 0.06850107
7.8785563 -0.41325837 0.015322234
6.3893204 -3.005573 0.15910706
6.2646112 -2.9941664 0.14549068
6.4546795 -2.9778972 0.15170197
8.2841349 -0.93002534 0.10244372
3.0271208 -7.0485988 0.26962802
4.1059675 -7.240561 0.37328643
3.523289 -7.1258569 0.31285939
6.1668987 -5.0642881 0.32946372
6.6137362 -8.2245045 0.68514442
6.4258466 -11.083958 0.96413726
5.3057218 -12.952553 1.0481762
5.9763575 -13.081491 1.1141694
