# .PCD v0.7 - Point Cloud Data file format
VERSION 0.7
FIELDS x y z
SIZE 4 4 4
TYPE F F F
COUNT 1 1 1
WIDTH 134
HEIGHT 1
VIEWPOINT 0 0 0 1 0 0 0
POINTS 134
DATA ascii
-12.523677 21.417986 0.082142375
-6.6513567 7.9618335 0.8777355
-6.6443076 8.2355099 0.86109692
-5.8663015 8.4348431 0.84483755
-7.0356016 8.5655231 0.83829403
-6.5961609 8.6955357 0.83487821
-6.9191966 8.8617783 0.81943464
-4.1525002 8.8811178 0.83658874
-4.9670057 9.3933268 0.80057174
-1.0490712 6.2624946 0.99340123
-1.3185629 6.3126993 0.98932815
-1.8132206 6.904078 0.95547676
-2.6495647 7.3565378 0.93051207
-7.9800143 3.894747 1.0919342
-4.4318123 4.1136689 1.0887533
-4.0470781 4.1645322 1.0928705
-5.6810074 4.4379988 1.0659635
-2.9148285 4.4998794 1.079381
-4.1269951 4.521666 1.0776633
-2.0874438 4.5645919 1.0922145
-1.8970959 4.5579104 1.0941753
-1.6823772 4.5174999 1.0899117
-5.4780536 4.6852474 1.067201
-2.1713696 4.6669021 1.089928
-6.8881993 4.7064795 1.0419924
-3.3411469 4.7307172 1.0699294
-3.717171 4.895627 1.050879
-3.4911933 4.8598523 1.0556006
2.5423582 4.9534988 1.0988693
-5.7564163 5.0680785 1.0263826
-4.5482359 5.0697842 1.050621
1.9569533 5.119647 1.0833275
2.5391755 5.1053524 1.0833349
2.7107382 5.1672239 1.0888425
3.4140511 5.1443472 1.0866597
3.83214 5.1101351 1.0918636
-0.17830443 5.2884011 1.0718518
2.3907299 5.2494192 1.0760338
2.4200811 5.2954736 1.0742154
3.1337776 5.2828884 1.0806892
1.7644684 5.3136258 1.0655675
2.6046877 5.306798 1.0769773
0.23868728 5.4394522 1.0664907
1.6670074 5.5760527 1.0526358
0.61744726 5.7958288 1.0343374
1.4964281 5.7566757 1.0471212
5.1102252 5.7535982 1.0832686
7.893436 5.7552938 1.0998046
6.8631272 5.8328519 1.0735056
8.4529133 5.9282117 1.0843697
-0.22576523 6.1993079 1.009434
3.1119275 6.4978352 1.0242666
8.5725975 6.6401978 1.0407114
0.12840357 3.3140049 1.1729319
3.331532 3.3729348 1.194766
4.2301922 3.3175311 1.1930164
-0.55118746 3.4547181 1.1705189
1.0407671 3.4757433 1.1803579
2.5037842 3.4370177 1.1832808
3.5841839 3.4646952 1.1888869
2.7060025 3.656503 1.1752584
2.8350978 3.6232805 1.1780759
3.4205871 3.6709449 1.1723368
-1.3667024 3.7709379 1.1431563
1.9353147 3.7817984 1.1685457
7.2696857 3.7470241 1.1934129
-1.8879113 3.9442441 1.1282499
-0.50363648 3.9168353 1.1371167
5.7206283 3.9120569 1.183598
-2.9806924 4.0840187 1.1106669
0.4486258 4.0993214 1.1402192
0.64617264 4.0747375 1.1435225
5.8658257 4.084115 1.1633289
-4.3306866 4.1268415 1.1067886
-1.8127838 4.1890516 1.1150314
-1.5383463 4.107296 1.1170658
4.5803595 4.1257977 1.1630473
-1.6946301 4.2683439 1.115586
-1.300251 4.309731 1.1161066
1.0853729 4.3856802 1.1114936
7.998805 4.3809657 1.173672
0.94978702 4.4782286 1.1096505
4.4774847 4.5489206 1.1374162
4.688014 4.5541997 1.1384802
7.4229088 4.5320454 1.1645433
8.1504917 4.5446582 1.1676247
9.0114994 4.5410109 1.1758175
4.1392555 4.6374984 1.1278338
4.3136139 4.6720629 1.1253433
7.0492611 4.6763978 1.1545498
8.8069744 4.7072444 1.1605532
9.7567492 4.7070279 1.1630701
1.0467637 4.8676205 1.1034052
6.9885058 4.9600716 1.1329195
7.7132931 4.9232111 1.1364648
8.7406368 4.9690037 1.139486
8.893404 4.9310894 1.1378145
8.6981945 5.2994547 1.1216795
7.7099299 5.3055944 1.1117074
8.2920408 5.3481088 1.1213946
9.0567341 5.3441172 1.1317854
8.0412703 5.4756517 1.1099441
8.2903824 5.7512627 1.1053033
-8.4879646 0.31112543 1.280039
-8.2527084 0.63033563 1.267081
5.6241856 2.1156125 1.2769358
9.5465651 3.6907339 1.2235584
9.5793924 3.8808827 1.2090731
9.6231909 3.9101894 1.2103159
-5.9862146 -0.70136797 1.352708
-1.6980584 -0.58840752 1.3783513
-8.4238958 -0.44588721 1.320169
-5.71807 -0.49776003 1.3367599
-6.724885 -0.24194323 1.32359
1.9647725 0.88101107 1.3116238
8.5662374 1.5252497 1.3264419
8.8856831 1.5655386 1.3379774
9.220685 1.8880839 1.3068824
2.6306696 -2.2449219 1.4986303
1.4633706 -2.0082169 1.4715805
0.92211068 -1.9010173 1.4724671
0.66576463 -1.8658559 1.4594057
0.11967397 -1.7094352 1.4552256
-0.48410702 -1.3758016 1.4215759
8.5472746 -1.0756898 1.4796562
8.6201744 -0.67084908 1.4544399
8.681735 -0.51118433 1.453666
4.930151 -2.099582 1.5065179
4.0924726 -5.4663687 1.6950885
6.3767395 -8.3116932 1.8662454
1.5738389 -10.684319 1.968166
3.1346142 -11.976105 2.035774
2.1935565 -11.22465 2.0014005
2.6932397 -14.926373 2.1937668
