# .PCD v0.7 - Point Cloud Data file format
VERSION 0.7
FIELDS x y z
SIZE 4 4 4
TYPE F F F
COUNT 1 1 1
WIDTH 87
HEIGHT 1
VIEWPOINT 0 0 0 1 0 0 0
POINTS 87
DATA ascii
1.3397483 7.892055 -1.7298244
9.278923 4.0973034 -1.3362547
6.8541927 3.3747272 -1.1099133
5.2534356 3.3528047 -1.0434239
4.7365127 3.5480733 -1.0501207
-1.1594151 4.6665287 -1.0431901
-1.8357108 4.872498 -1.0512519
-2.9903922 5.1360135 -1.046429
-5.1514807 5.3933539 -1.0109855
-3.0284848 5.3119345 -1.080326
8.3236256 2.2896209 -0.96099716
8.0748005 2.3566713 -0.97022808
-4.4899244 3.8125606 -0.7496689
-6.328021 4.1279492 -0.73697019
6.6881123 0.84906948 -0.62887418
1.1224315 2.1603992 -0.65533954
1.618566 2.182698 -0.67335951
0.44822574 2.4263396 -0.67622143
-0.32421523 2.5818338 -0.67861593
-0.83509821 2.6860559 -0.67162883
-1.1667078 2.829268 -0.69091189
-4.9160461 3.3858814 -0.64516526
-5.3235178 3.5842514 -0.67613512
5.4584551 0.50344121 -0.51103026
5.7549195 0.56069618 -0.55020487
3.1052771 1.3826171 -0.58631563
1.4711685 1.4502381 -0.53967172
0.31073266 1.6316106 -0.5287208
0.50135362 1.6357793 -0.52958071
-0.48677713 1.7888007 -0.51754773
-0.25399387 1.7712644 -0.53061044
-0.91320622 1.8755801 -0.53053606
-1.2882767 1.9737024 -0.52618021
-3.4291182 2.4395401 -0.5255416
-3.3590508 2.4712329 -0.53732723
-6.6443305 3.3370614 -0.57836008
-6.7256436 3.4025898 -0.57480836
7.5251021 -0.28587621 -0.46468744
5.3461533 0.19323237 -0.46490461
-8.2301149 2.9079316 -0.4337422
-8.1435175 3.0543079 -0.46273798
8.572197 -1.2647204 -0.30456883
8.6317139 -1.2207251 -0.31627744
-8.2320318 2.5152791 -0.35413432
0.44417763 0.36342493 -0.29320893
-8.3509712 1.7252349 -0.21328332
4.8885355 -1.9721661 -0.035972334
3.4767711 -1.5756924 -0.063811608
0.46533096 -1.1554809 -0.014477691
-3.76717 -0.11415209 -0.052781522
-8.3948698 0.83701539 -0.037285842
-8.5778713 1.1400001 -0.096722305
5.8512187 -2.9353628 0.097229503
5.6577759 -2.8457966 0.09252435
4.5593524 -2.3641198 0.040666245
5.692872 -2.3967857 0.0077773035
2.443871 -2.1751738 0.088213935
0.045523196 -1.6342944 0.095509075
0.294047 -1.6796924 0.09190876
0.68941087 -1.4774103 0.033677194
-1.0668919 -1.0826676 0.02424073
-4.0773816 -0.75788808 0.08770173
-3.7892942 -0.73398036 0.062766954
-4.2828636 -0.59669709 0.059366029
-3.4349744 -0.54279989 0.0198134
-3.3981996 -0.4772442 0.0030975267
-7.3593736 0.26196271 0.032393415
-7.4448037 0.31891119 0.024828687
4.7281322 -2.8436599 0.13474172
3.8130729 -2.6981244 0.13986948
4.8612213 -2.6949279 0.10492584
2.9653044 -2.4147696 0.11448026
0.94742918 -1.9531666 0.11072547
-4.861558 -1.0133815 0.16691813
-3.4815116 -1.0759721 0.11454771
-6.101696 -0.95142144 0.19545503
-7.654242 -0.12821582 0.11364669
-6.5082388 -0.90320957 0.20682114
-6.8115692 -0.84783041 0.2167064
2.4194813 -6.2355809 0.85937357
6.4295697 -9.1417542 1.2388878
2.5779402 -12.332448 1.9703155
2.3483427 -12.208767 1.9709193
-0.19067144 -11.812161 1.9894212
0.043349981 -11.492655 1.9278592
6.2763209 -15.662529 2.4431527
6.4366589 -15.693816 2.4583185
