# .PCD v0.7 - Point Cloud Data file format
VERSION 0.7
FIELDS x y z
SIZE 4 4 4
TYPE F F F
COUNT 1 1 1
WIDTH 57
HEIGHT 1
VIEWPOINT 0 0 0 1 0 0 0
POINTS 57
DATA ascii
4.0879745 6.4790859 -0.13555029
4.4179153 6.517365 -0.1403681
3.790355 7.4264946 -0.19723535
-1.0224705 7.5162292 -0.10507257
-1.4401228 7.6986575 -0.12526086
-2.5972929 7.9618206 -0.10624005
-0.88330281 8.1649542 -0.16605395
-6.5381298 8.5262527 -0.080064207
-3.4932542 4.8686972 0.18059355
-3.3064342 4.9274111 0.16081321
-7.0169439 6.5041995 0.11475277
8.5695562 0.9441582 0.24765629
0.56959891 2.4245453 0.29508573
0.052805662 2.5175838 0.28908592
-0.5271464 2.661978 0.29786789
1.4727273 2.6406984 0.25554803
-1.3333801 2.8519001 0.29025915
-7.8277302 4.7438765 0.28450739
-7.4337702 4.759182 0.27228203
-7.742341 4.8784804 0.25237748
-0.90877521 2.7439075 0.30264947
-8.247757 2.5082984 0.47469288
-8.341114 2.1441281 0.51805276
4.8257046 -3.2158554 0.69219905
4.8272409 -3.1662221 0.68849885
4.7164831 -2.8383594 0.66040969
4.8216867 -2.8272619 0.65322351
4.7256126 -2.7314489 0.6439743
3.8146563 -2.65308 0.66543829
4.3762832 -2.6458054 0.6508224
4.4167662 -2.6769826 0.64952552
3.5324616 -2.4676032 0.64310092
2.187443 -2.2184973 0.66994631
-0.69896072 -1.5122716 0.66981214
0.059932709 -1.5584567 0.64464688
-0.90516162 -1.3696623 0.65432465
-2.9160678 -1.2420584 0.68628705
-2.7434592 -1.0912223 0.66241306
-2.7185628 -0.97819066 0.65114987
-4.4835591 -0.82080054 0.69055849
-4.1527448 -0.66841555 0.65388489
-6.1010494 -0.42087343 0.68355417
-5.6780519 -0.46772254 0.67714274
-3.769886 -0.30571187 0.63236856
-6.846982 -0.23557106 0.6817261
-4.0418243 -0.26981929 0.62663519
-7.1140261 -0.1036391 0.67785466
-8.1113605 -0.0072467923 0.68451798
-7.3693676 0.059298113 0.6597774
-8.5371132 0.78552699 0.63214409
-8.5208826 0.94667196 0.61974764
-3.692827 -1.1158491 0.70102596
-8.3749886 -0.43593919 0.72352499
6.8526754 -7.0550275 0.96683598
6.6604919 -6.7664037 0.94799149
6.5967021 -8.2976274 1.0834042
5.9169092 -13.072317 1.5185978
