# .PCD v0.7 - Point Cloud Data file format
VERSION 0.7
FIELDS x y z
SIZE 4 4 4
TYPE F F F
COUNT 1 1 1
WIDTH 93
HEIGHT 1
VIEWPOINT 0 0 0 1 0 0 0
POINTS 93
DATA ascii
4.7949648 9.9921198 0.30152038
3.8546648 10.211356 0.31197169
1.7094488 10.667879 0.3081848
8.4226561 6.2221775 0.59057939
9.4527731 6.3885603 0.53537512
9.4708214 6.4190574 0.54138225
9.6511507 6.4276228 0.52779078
9.9426231 6.4112844 0.52632713
8.83251 6.5531406 0.54347688
7.7682085 6.7294912 0.54141021
7.8150525 6.758409 0.54112506
7.7174339 6.8384113 0.54197651
4.0295072 7.6022968 0.55117226
0.87497592 8.228344 0.55005527
8.1180267 5.0655928 0.69084787
8.1375027 5.2589769 0.68355584
8.3772373 5.3359766 0.65497434
8.1662827 5.5093012 0.64664698
8.4753466 5.5640082 0.63197714
8.2692108 5.701035 0.64023381
8.4393654 5.7240663 0.62893581
5.3590517 5.8543196 0.67459047
5.2930822 6.2867966 0.63182926
5.7048054 6.2253451 0.64629298
-3.1471989 7.9942942 0.65966243
-6.5424948 9.1418457 0.6166662
7.9363403 4.2761192 0.76628566
7.9799376 4.4788961 0.75265598
9.7768869 4.6973286 0.70053399
7.8242407 3.6855621 0.82318616
8.5869789 1.9671683 0.96668744
8.629776 1.9696445 0.9639461
1.8447976 3.2650967 0.98758924
-3.045224 4.9130683 0.93952364
-6.477273 5.117815 0.98705715
-4.845212 5.2921548 0.94072491
-6.5817661 5.3812613 0.96512127
-5.4813495 5.3152599 0.95754063
-6.9396582 5.7425504 0.94382846
-6.5348511 5.8334732 0.93103194
8.3797512 0.70054704 1.0973989
8.6076088 0.98738736 1.0735708
8.8658476 0.90503192 1.0766228
1.7579527 2.5666194 1.0586134
1.7145765 2.6268933 1.0526233
1.8492321 2.7207522 1.0545738
1.7005492 2.8564768 1.0367359
0.64058328 2.9590092 1.0529323
-0.61174351 3.1607842 1.0508645
-0.4751704 3.1756339 1.0491629
-0.26786706 3.1744399 1.037716
-0.1211881 3.1679246 1.0452911
0.10301622 3.1506023 1.0510718
-1.2954013 3.3222508 1.0566887
-0.8852036 3.3175483 1.0433694
1.5176938 3.318485 1.004802
-1.4513583 3.4383783 1.0382727
8.8049736 -0.26498505 1.1801257
8.7437553 0.017232712 1.1464844
8.2917337 0.11318983 1.1502898
8.5336437 -1.1663585 1.2677562
5.517787 -0.049215112 1.2267375
5.5814791 0.076648578 1.2215954
-4.6121697 2.0969818 1.2302061
-8.1618118 3.0965829 1.2146164
6.4528823 -2.885608 1.4768056
3.2020669 -2.4001827 1.4937894
4.8126621 -2.3206072 1.4597408
3.1839824 -2.277874 1.4854321
3.2161636 -2.2806692 1.4888232
-2.809118 -1.0373718 1.4833001
-5.5402927 -0.52439314 1.4976733
-8.5437775 0.49398848 1.4808079
-8.6630735 0.75763172 1.4576106
-1.3299177 -1.4383821 1.5004096
-6.8972092 -0.26931268 1.5071331
6.694809 -7.4168267 1.8918443
7.3588572 -6.6822624 1.815196
5.4213543 -8.9662294 2.0614166
0.68789935 -7.5728288 2.0212052
1.4216056 -9.474 2.1937959
4.5999212 -9.3587046 2.1038709
2.777874 -9.0069284 2.127897
1.2948544 -8.7295933 2.1155539
3.8312685 -10.856492 2.2730105
2.3454309 -10.453498 2.2687891
1.3120673 -10.314533 2.2687502
1.7256336 -10.230618 2.2490029
0.5294686 -9.857976 2.2358027
1.8604205 -9.8139687 2.2195201
0.25051117 -9.7101126 2.23136
4.4096341 -12.060895 2.3714674
4.9628901 -11.873373 2.3444009
