# .PCD v0.7 - Point Cloud Data file format
VERSION 0.7
FIELDS x y z
SIZE 4 4 4
TYPE F F F
COUNT 1 1 1
WIDTH 87
HEIGHT 1
VIEWPOINT 0 0 0 1 0 0 0
POINTS 87
DATA ascii
-10.03792 -4.2328262 -1.7441843
-7.9317465 -5.1579437 -1.6227137
-5.2670646 -5.6465802 -1.4331303
-5.2706943 -5.5337224 -1.411401
-6.9685831 -0.12576336 -1.3062541
-5.63166 -1.7746627 -1.2743708
-5.8500547 -0.92221427 -1.2554705
-6.6100807 0.10338996 -1.2789909
-6.6339488 1.1532549 -1.2331882
-2.0676763 -6.1362896 -1.1930228
-3.1878538 -4.1897101 -1.1826738
-5.3566504 -0.17854208 -1.1854991
-2.8636851 -1.0452904 -1.0257796
-3.7016683 -0.14276433 -1.0530857
-4.4443259 0.7021544 -1.060576
-4.0837297 0.75378412 -1.0438528
-1.8283076 -0.35892946 -0.900855
-3.4958344 0.98520029 -0.97396648
-3.5191836 1.1144506 -0.97064948
-3.0702584 1.1172509 -0.93892658
-3.0490181 1.2735794 -0.92344332
-5.5441637 5.2982159 -0.95143712
0.052948892 -3.4055951 -0.89343029
0.60754395 -3.1195939 -0.83153373
0.26128322 -2.5015707 -0.84556568
-1.3734914 -0.46558228 -0.8841216
-2.0429666 1.4488004 -0.83160317
-1.9747696 1.73225 -0.81368536
-2.678925 2.8318949 -0.82893121
-6.6200991 8.286274 -0.89698005
-6.6443624 8.920845 -0.87744057
0.96182626 -2.3263586 -0.78096491
1.4426892 -2.2301812 -0.73451817
1.0188644 -1.1160181 -0.7131387
0.66607952 -1.0256677 -0.73915994
-0.22770953 -0.64296365 -0.79210538
-0.48447824 1.3636355 -0.72209656
-0.3060936 1.4788718 -0.70566416
-1.5057603 1.9415371 -0.77178842
-1.5070305 2.133194 -0.76632166
-2.0061319 2.2524357 -0.79894578
-1.8434224 2.2516851 -0.78199375
-1.6621108 2.2263074 -0.77098536
-1.5921859 2.8964815 -0.73693877
2.5181208 -2.0637403 -0.628519
0.72328174 0.69886851 -0.65184247
-0.10385402 1.8466277 -0.66569167
-0.0094415545 2.060256 -0.64993709
-0.29072613 2.1075325 -0.66138387
-2.8872957 6.6325774 -0.66894501
4.5233655 -3.2310855 -0.53335202
4.6444759 -3.1487567 -0.51602387
4.2925825 -2.9597714 -0.52331078
2.7878671 -1.2087584 -0.57121265
1.3070488 2.1149769 -0.54909396
5.6057591 -2.4298208 -0.40000069
4.7257686 -2.1470945 -0.46810716
4.3089128 -0.40157452 -0.41841909
2.9309771 1.3482721 -0.43738592
6.6196384 -2.5566783 -0.32363364
3.942729 0.68749911 -0.39523548
4.0395708 0.69388103 -0.39459884
4.3510804 0.7835896 -0.34822839
4.6927605 0.78300995 -0.3219161
3.7776837 1.1994516 -0.37699753
0.32239223 10.782609 -0.22216739
0.13740841 10.911176 -0.23906481
8.5562077 -1.2904999 -0.12261302
8.641408 -1.2269261 -0.10475232
8.5881195 -1.0675874 -0.10112287
7.5154133 -0.41633922 -0.16498148
7.2587004 -0.18059988 -0.15874958
7.6547661 0.13322818 -0.11354448
7.5074353 0.36819693 -0.12386703
3.9690623 6.5491781 -0.13231683
4.3501778 6.5066519 -0.10559188
3.8545895 7.2492738 -0.10773588
8.5678501 -0.91622466 -0.094223276
4.0507927 6.9853878 -0.091198727
4.1201386 7.4796653 -0.070462614
8.9211483 2.5146775 0.090845294
9.1085415 3.5468013 0.16047537
9.5211239 3.8190837 0.20495328
9.6953306 4.7665772 0.25080064
10.020651 5.826982 0.32140595
10.29752 8.7759199 0.48333487
10.237398 8.8641071 0.49118248
