# .PCD v0.7 - Point Cloud Data file format
VERSION 0.7
FIELDS x y z
SIZE 4 4 4
TYPE F F F
COUNT 1 1 1
WIDTH 144
HEIGHT 1
VIEWPOINT 0 0 0 1 0 0 0
POINTS 144
DATA ascii
4.4234638 5.3562508 -1.8204949
-2.6558766 5.5609522 -1.8032627
-2.1662049 5.5888443 -1.8069301
-1.9881365 5.5308652 -1.8012396
0.21551919 5.5009985 -1.800367
-2.270643 5.7464962 -1.8201261
-2.1787403 5.7395287 -1.822824
-2.8783517 5.9419565 -1.8309711
-2.5425582 5.9131393 -1.8220613
-2.1846998 6.069026 -1.8416443
-2.6999936 6.1750345 -1.8523839
-2.5877786 6.4292688 -1.8681444
-0.037186503 4.2613201 -1.7058276
-2.1167235 4.3447676 -1.7116588
-0.46534735 4.3233504 -1.7036163
-1.9567231 4.565721 -1.7220569
-4.6733251 4.6293273 -1.7210125
-5.3315969 4.7054882 -1.7204497
-1.7301664 4.7308102 -1.7344959
-2.7333999 5.0942726 -1.759305
-1.8865683 5.050292 -1.7611716
-0.16624252 5.0789838 -1.7669015
-2.182138 5.1068077 -1.7728797
-3.1017907 5.2078319 -1.7723075
-2.7126782 5.3633471 -1.7828512
-2.2294497 5.3267155 -1.7875304
-3.0342255 5.410779 -1.7870193
-2.8745878 5.4720182 -1.7917408
-3.2350116 3.080524 -1.6042752
-4.9268117 3.1919739 -1.6089064
-4.6869617 3.1092072 -1.6056143
-5.7148533 3.2250347 -1.6007036
-8.0377264 3.3519793 -1.6086389
-5.8702269 3.305408 -1.6132864
-4.6529832 3.3051767 -1.6129248
-5.2723103 3.4545207 -1.6135262
-2.3492303 3.4799738 -1.6387956
-3.3921404 3.5533581 -1.6361945
-2.4973907 3.5273879 -1.6375645
-4.8207045 3.6866028 -1.634758
-2.197803 3.6203594 -1.6440277
-3.6655896 3.7415628 -1.6508567
-3.469533 3.749126 -1.6518443
-3.1490743 3.7532945 -1.6527113
-6.271234 3.8386266 -1.6472346
-2.6280727 3.8855674 -1.6596992
-2.3046811 3.8731806 -1.6761363
-5.9062052 4.0747647 -1.6695994
-2.6697228 4.2363477 -1.6878568
-4.0435681 1.8481539 -1.5013121
-1.2372571 1.8192571 -1.5043302
-3.1133294 1.9139049 -1.5019538
-0.062761784 1.9762018 -1.5209357
-4.7251701 2.0784178 -1.5177851
-4.2626429 2.1806679 -1.5201098
-4.0871568 2.1043067 -1.5212528
-3.3011374 2.1008101 -1.5219073
-3.1619997 2.1023302 -1.5253952
-2.8779931 2.1461384 -1.5223191
-2.4740262 2.1200919 -1.5324805
-5.0861473 2.2562037 -1.5322111
-4.9733257 2.2657697 -1.522881
-4.3117685 2.2953308 -1.5338922
-3.8805475 2.2436929 -1.531096
-3.5135026 2.2958682 -1.5383152
-3.1132424 2.2997904 -1.5353279
-1.7410722 2.20544 -1.5396688
-5.0654035 2.4895728 -1.5479816
-4.9184794 2.4948945 -1.5533109
-4.0951228 2.4822102 -1.5524806
-3.9375651 2.4595225 -1.5541983
-5.8471584 2.6454134 -1.5602897
-5.4120622 2.6035001 -1.5556424
-5.3086214 2.6266961 -1.5552971
-5.1155958 2.6441846 -1.5481114
-4.2937632 2.672998 -1.5714307
-3.0967565 2.6591892 -1.5686404
-4.5481896 2.7156763 -1.5723242
-4.0175099 2.7069333 -1.5732033
-4.3705845 2.8937407 -1.5851285
-3.1552095 2.8639073 -1.5914812
-6.2120852 3.0784917 -1.5860257
-5.0254345 3.0200038 -1.5830681
-4.8822999 3.1544657 -1.5908368
-0.95059061 0.77010465 -1.4192508
-3.7195115 1.1957977 -1.445189
-3.383358 1.3724403 -1.4532733
-4.4856415 1.4198775 -1.4638885
-4.3679247 1.4382172 -1.4682378
-4.1576085 1.4713337 -1.4597423
-3.6433396 1.5202348 -1.4786537
-3.3157134 1.5439578 -1.4718014
-3.8552582 1.660681 -1.4909225
-1.1591194 1.6468031 -1.4846308
-5.7195864 1.7815185 -1.4747977
-4.7175355 1.78821 -1.4819236
-4.0424871 1.7090099 -1.4868867
-3.5541911 1.7126875 -1.483277
-3.8145847 1.8830223 -1.4974111
-4.561655 -0.51627111 -1.307784
-4.1836557 -0.47084963 -1.3158736
-2.9435639 -0.4260295 -1.3124483
-2.6419349 -0.28612441 -1.3369894
-2.584415 -0.27420658 -1.3405231
-6.6343679 -0.15928644 -1.3324792
-6.1305518 -0.15026954 -1.3357382
-5.7593918 0.091976203 -1.3494709
-4.2157574 0.34196484 -1.3815528
-3.8786857 0.62626475 -1.3982048
7.4293776 -2.125299 -1.2339661
6.6811962 -1.9207373 -1.247781
3.9003744 -1.8405756 -1.2306427
3.5240772 -1.7013116 -1.2376602
4.1253963 -1.7227068 -1.2359223
-9.2564631 -1.5665855 -1.2014326
-3.734071 -1.5369854 -1.2148906
-3.3252223 -1.5365684 -1.2225699
2.5601273 -1.5212904 -1.2429783
6.7023368 -1.5669739 -1.2764702
-5.4525833 -1.4868019 -1.228956
2.3005867 -1.4753356 -1.2494442
4.2286453 -1.4760426 -1.2565186
7.4619398 -1.4036242 -1.2888501
-5.9339237 -1.3784982 -1.2222288
6.7787771 -1.3712043 -1.2907676
7.0733385 -1.306886 -1.2986408
-0.67204595 -1.201025 -1.2620257
-5.282506 -1.1918185 -1.252465
-3.9142771 -0.89694148 -1.2684706
-0.91220969 -0.86249447 -1.2844095
-0.67676771 -0.89653826 -1.2849882
-0.98492277 -0.72682464 -1.2960961
-5.3047276 -0.69650161 -1.275557
-3.3191862 -3.1257505 -1.1021471
-9.5640526 -2.858665 -1.1017404
-7.3468065 -2.5671372 -1.1202862
-6.1463685 -2.5023074 -1.1400026
-5.538681 -2.2080626 -1.156768
-5.8916607 -1.8467405 -1.1882486
-5.6644793 -1.8054299 -1.1949028
-6.105978 -1.7245419 -1.1893613
-3.0244253 -3.3256011 -1.0872613
4.3443475 -5.0786548 -0.9637382
2.3193851 -6.8706498 -0.81768405
