# .PCD v0.7 - Point Cloud Data file format
VERSION 0.7
FIELDS x y z
SIZE 4 4 4
TYPE F F F
COUNT 1 1 1
WIDTH 132
HEIGHT 1
VIEWPOINT 0 0 0 1 0 0 0
POINTS 132
DATA ascii
8.2790737 9.2895622 0.18345252
2.9565079 10.365547 0.15128444
2.1062565 10.559526 0.14107484
0.7208482 10.785132 0.13316512
12.296482 8.3441429 0.22888179
1.1023721 8.1684771 0.37319806
-4.7385888 8.7337513 0.38350648
-6.2306862 9.5716009 0.32557142
-5.7788296 9.540493 0.33050048
-5.9009829 9.6715078 0.32198405
-6.5229216 9.8128147 0.31558523
10.066454 6.1173763 0.45124787
6.0815001 6.2218423 0.49554282
5.7768459 6.3078032 0.49763316
5.1238222 6.4056158 0.48595956
5.3080893 6.4094658 0.48985231
3.9566154 6.5773759 0.4820146
3.9738989 6.6358085 0.47921664
2.0959303 6.827929 0.49587935
-3.3422837 7.4714069 0.4896673
-4.8631635 7.7278919 0.49302864
-1.7130389 7.7364521 0.45173094
-1.4687752 7.7471371 0.44539779
-1.3768997 7.7358065 0.44198221
-6.7641029 7.9370799 0.48178869
-2.3171179 7.9051142 0.43315816
-6.8571081 8.0343771 0.48933131
-2.8085861 8.031126 0.43175203
-4.9076805 8.2280121 0.43409768
1.9083976 6.0652771 0.557298
6.0716667 6.1305919 0.50587845
1.9251617 6.2615767 0.53710592
-2.0292108 6.4922318 0.57453662
1.9246337 6.5240784 0.51106054
-6.9343376 6.7610955 0.58964986
-5.1106348 6.7252383 0.5775122
1.9039452 6.7051439 0.50467801
-5.0452347 7.2761946 0.52732849
-4.9475679 7.4855485 0.50591862
9.5733576 3.6481895 0.68529272
9.6395168 4.0587821 0.64997077
4.7660766 4.2732821 0.68908739
4.8282967 4.3234944 0.68269169
4.5828881 4.4311543 0.68228447
4.7346725 4.4685307 0.66863632
4.8277435 4.4713435 0.67746508
9.1758804 4.5007381 0.60970974
9.2644005 4.5378242 0.61029339
4.8728757 4.6967616 0.65152669
4.7552085 4.7084618 0.65454543
4.8702035 4.9414072 0.63173217
1.7502325 5.0425119 0.65568596
1.7648032 5.3327236 0.63226318
-5.617528 5.4848013 0.69932365
-5.1814947 5.973803 0.64377213
-5.267972 6.0451374 0.63574553
-5.1850615 6.3105259 0.62529635
-5.1294537 6.4599109 0.61387134
-7.2961674 6.5265307 0.63305527
9.330121 2.716445 0.77915263
7.8459239 2.9184289 0.77394271
4.6418862 3.1684225 0.79943126
4.5598054 3.3001819 0.77822888
4.610795 3.3451452 0.77604604
4.4712753 3.4575133 0.76561224
4.6553593 3.5626583 0.74897456
4.5019503 3.934649 0.72319239
4.7240305 3.927525 0.72321987
4.8323174 4.1411161 0.70437062
1.5092297 4.2967396 0.73378694
1.6318923 4.5677986 0.7060259
-2.4047844 4.6786098 0.7323525
1.6169503 4.6441689 0.70286113
-5.5551152 5.1971316 0.72727364
-7.3642316 5.3253336 0.73841858
-7.3069553 5.4757738 0.73062289
-7.5606575 5.5037937 0.72162545
1.9686266 1.2137399 0.9982053
-1.4185627 1.9278147 0.98070365
-4.1643448 2.464211 0.970236
-8.149828 2.9301267 0.97824275
1.9259856 0.5809688 1.0747141
2.1210387 0.50021243 1.0821295
1.928401 0.69117951 1.0509975
2.3228705 0.70392501 1.055948
1.6956906 0.87228155 1.0507822
2.3332629 0.85803521 1.0441031
1.9353814 0.91798389 1.0270698
2.4250538 0.92322075 1.0257691
1.9259491 1.0633415 1.026969
-8.4501839 1.5354722 1.0950234
-1.5211961 1.5507183 1.0281434
-8.4551697 1.7166473 1.0750481
-8.3624573 1.9521582 1.0572252
-4.8674655 1.975529 1.0105236
-4.5294085 1.9210792 1.0233992
-4.8385439 2.0647643 1.0101252
-8.3429394 2.2873278 1.0403974
-8.1718636 0.62591124 1.1905004
4.9854655 -2.0835683 1.2796817
8.346405 -2.0637918 1.2417066
2.0656753 -1.970282 1.2950296
4.9778752 -1.989046 1.2763569
1.4967382 -1.8928463 1.2941563
0.95889223 -1.7370037 1.2916614
-1.6715157 -1.2909839 1.2926004
-2.0714016 -0.96699935 1.2537036
-1.6763815 -0.88061601 1.2516211
-4.2841082 -0.72408593 1.256444
-4.7429953 -0.63391906 1.2583368
-5.2677765 -0.43250239 1.2377691
-5.5290699 -0.37079138 1.2375987
-6.4168391 -0.22796163 1.2423369
-5.8910637 -0.25144076 1.2400153
-6.4947462 -0.11268006 1.2336338
-7.3414621 0.0088243783 1.2252487
-6.2134895 0.0092539899 1.2138541
7.9377928 -3.2205901 1.3501318
7.5177255 -3.1147218 1.3379517
8.1696167 -3.0789976 1.3291926
6.6892939 -2.9515209 1.3338875
2.9273553 -2.1382709 1.3005151
3.0912886 -2.1850872 1.3161656
3.7560465 -2.1891832 1.3020161
2.5274663 -1.9900005 1.3045616
0.67645365 -1.725994 1.3024266
-0.057126522 -1.6305988 1.3040085
3.9458747 -5.6684074 1.6279526
6.7049727 -7.6528401 1.7814556
6.3776836 -8.4120665 1.8497357
6.810935 -9.3973656 1.9284798
0.66360664 -10.857181 2.1354487
