# .PCD v0.7 - Point Cloud Data file format
VERSION 0.7
FIELDS x y z
SIZE 4 4 4
TYPE F F F
COUNT 1 1 1
WIDTH 90
HEIGHT 1
VIEWPOINT 0 0 0 1 0 0 0
POINTS 90
DATA ascii
-12.227871 22.226835 -0.60218853
-9.355154 16.218174 -0.065501109
-0.10264833 11.006012 0.48214057
-6.8607149 8.0891237 0.62470615
-6.6731167 8.1013889 0.63763845
-7.4405251 6.7378359 0.72804701
-1.1015791 7.58283 0.74105567
-7.3059425 5.4981112 0.83780694
-7.1670761 5.6959753 0.82112616
-7.9618173 4.2956696 0.93005991
-7.8287382 4.5590448 0.91113162
-2.7388976 5.0663896 0.93975806
5.3358116 6.2732692 0.93714678
5.6632729 6.2294769 0.95407444
8.5638132 6.3025732 0.9868415
4.6537786 6.4311042 0.92333776
7.8840532 6.5041552 0.97211683
8.4959049 6.6773677 0.96444255
-8.320631 2.0920851 1.0907407
-1.438961 3.3757222 1.0931211
-0.65687931 3.3151913 1.0998001
-1.1073785 3.4448693 1.0847754
8.2078781 5.8521304 1.0307969
-4.3857775 2.4828491 1.1208034
2.467293 2.9260001 1.1762768
0.53570962 3.1199284 1.1339713
4.4868231 3.197634 1.1820582
4.92346 3.1674602 1.1969872
5.4754248 3.1991963 1.1987338
1.9627808 3.2832229 1.1352997
5.4306602 3.4867535 1.1850106
2.105304 3.5198388 1.1295693
4.8802872 3.551487 1.1636517
5.7963905 3.5548453 1.1699152
1.7562628 3.7511861 1.1066071
-7.132678 -0.15847404 1.2951267
-7.1232786 0.15957099 1.2647982
2.1554761 2.495573 1.2203732
2.2474766 2.4792676 1.2132425
1.7569829 2.673285 1.2016487
-8.3169632 -0.42441672 1.3022044
1.9934719 1.0339544 1.3238685
9.1431465 1.5028145 1.3818901
8.5354338 1.6399503 1.3665667
9.0581512 1.7474793 1.3661159
8.9642611 1.8628135 1.356654
5.5871878 1.9486182 1.3005228
5.6461997 1.9755729 1.3046772
7.8496037 2.2403736 1.3226752
-0.2703886 -1.4573696 1.4996128
-1.7065737 -1.3057513 1.4664547
-4.2425213 -0.90114892 1.4096605
-1.7014117 -0.91311252 1.4425906
5.3301191 0.36010674 1.4261084
-0.029041378 -1.5913944 1.5111157
8.5876532 -0.67440242 1.5594285
8.7481155 -0.12076203 1.513478
4.8435383 -2.306648 1.6530848
8.1697521 -2.9209099 1.7373586
8.2330656 -2.8653719 1.7460423
1.9512619 -8.1808214 2.0776095
4.7144337 -7.9276428 2.0990484
1.7320733 -7.8894463 2.0518732
1.6653121 -7.5002613 2.0270813
0.86902022 -9.6464043 2.1834428
1.6501398 -9.4554644 2.1957793
1.0143065 -9.3659554 2.1716161
2.7094543 -8.5859528 2.139092
2.0721884 -8.4648094 2.1110053
4.2949238 -8.4864063 2.1350863
0.18123722 -10.71466 2.2762604
4.6690927 -10.346495 2.2918212
3.7364223 -10.240466 2.2787132
1.4692008 -10.121515 2.2353463
0.91473055 -10.059486 2.2317665
1.2512276 -10.034042 2.2204947
0.99277973 -9.8439789 2.2026525
4.8799334 -9.7898855 2.2661781
5.3430591 -9.7055349 2.2566075
5.125102 -9.5460396 2.2411876
5.3393712 -9.4184856 2.229589
3.3837647 -11.435173 2.3765776
3.7228816 -11.313537 2.3717866
4.9475789 -11.054187 2.3682663
3.7776127 -10.951135 2.3456073
4.2720156 -10.708128 2.3287735
4.512044 -10.622252 2.320044
5.4168916 -10.583816 2.3324933
5.4136028 -12.68568 2.49965
2.9461856 -11.87854 2.4041762
