# .PCD v0.7 - Point Cloud Data file format
VERSION 0.7
FIELDS x y z
SIZE 4 4 4
TYPE F F F
COUNT 1 1 1
WIDTH 89
HEIGHT 1
VIEWPOINT 0 0 0 1 0 0 0
POINTS 89
DATA ascii
-9.8036671 -5.0074654 -1.9207231
-8.8885746 -5.2867689 -1.8844384
-9.4405823 -4.9848795 -1.8901919
-5.7431145 -5.8995609 -1.730998
-9.4010057 -3.0050337 -1.6504608
-0.95226228 -6.8855996 -1.5055271
1.8663174 -7.431108 -1.3657179
-6.0436726 -1.5172644 -1.232442
-5.6490889 -1.5816044 -1.2148634
-6.9283991 -0.95596039 -1.2204883
-7.3610778 0.18717068 -1.118203
1.8262198 -4.425746 -1.0152867
1.2688243 -4.1611118 -1.0124676
-7.6548996 0.49092227 -1.097681
3.4190979 -4.8870893 -0.95595574
1.8620745 -4.2493567 -0.98740005
1.2693448 -3.8248262 -0.96931672
-2.7069259 -0.9771843 -0.91905832
-4.2350564 -0.15423699 -0.9380573
0.56186432 -2.61116 -0.888475
0.87800419 -2.4865236 -0.8441422
0.42319095 -2.2882421 -0.85091919
-0.16680813 -1.9743049 -0.86353987
-1.6242378 -1.3234427 -0.89031327
-3.5005634 -0.086157829 -0.88181353
-3.7342391 0.22075137 -0.85416853
-5.8425832 1.4943222 -0.85560638
-6.1257915 1.5250015 -0.87608206
-7.7699442 2.3963146 -0.88368899
-7.3740001 2.5739317 -0.8433187
0.93488902 -1.4206414 -0.71370465
1.8750644 -1.721457 -0.68493843
1.7856511 -1.3439102 -0.63884544
1.8180032 -1.3376343 -0.63798517
0.93838072 -1.1193608 -0.67675835
-1.3598051 0.8865056 -0.60491073
-1.4146365 0.93459231 -0.61187673
-3.072551 1.7317855 -0.6248225
4.5408764 -1.9060962 -0.51685739
4.1225295 -1.8140696 -0.52670783
0.14782822 0.49572846 -0.53817344
0.32296687 0.45096189 -0.52899945
-3.0381827 2.8132615 -0.50252801
-4.913187 3.3968086 -0.56444484
-7.242475 5.1049213 -0.5200007
8.1367483 -3.285398 -0.41935575
5.2777081 -1.965559 -0.45837778
1.9968058 0.28514844 -0.43465421
-1.1635499 2.007503 -0.45771486
-3.2345393 2.8683553 -0.49880713
7.5813379 -2.4811525 -0.35606158
7.6798458 -2.2972038 -0.32669991
2.7269731 0.23652627 -0.37964666
2.8127255 0.21582291 -0.38681924
2.4947164 0.35332966 -0.3809756
2.4594307 0.40182012 -0.38574636
1.3623444 1.3824965 -0.34727725
1.504383 1.3857052 -0.34526664
1.4214079 1.4904264 -0.32781243
1.4130656 1.6218753 -0.32347077
-0.37212527 2.121618 -0.39356965
-1.40368 2.7816386 -0.38377815
-4.0699587 4.5711966 -0.3560085
7.0129385 -1.309921 -0.25418395
1.3607608 2.1884789 -0.24547866
-3.2212133 5.354229 -0.19394432
-2.9312277 5.7403727 -0.13007089
-6.7178907 7.864109 -0.15592507
4.6721148 1.8644979 -0.049364813
-2.9218907 6.1436 -0.078080863
-6.5826378 8.3439178 -0.085465789
-6.606081 8.5768566 -0.056294359
-0.31461093 8.4626713 0.39111954
-6.540453 12.171931 0.370222
9.6106148 3.4956083 0.49567199
9.3795929 3.615989 0.49405688
-7.9868112 13.852478 0.47584081
9.3304729 4.2644377 0.57870334
4.9174905 6.4199262 0.51802754
4.7324133 6.5105143 0.51722753
3.9851413 7.0173459 0.52742612
2.0712829 8.0334558 0.50254202
9.65345 4.488337 0.62555337
8.3440952 5.1991682 0.61202449
8.3262558 5.484273 0.64004207
6.7275438 6.6605463 0.67422295
9.7902966 5.0855522 0.70684415
6.6112461 7.0948467 0.72049612
10.079779 6.3275709 0.87621284
