# .PCD v0.7 - Point Cloud Data file format
VERSION 0.7
FIELDS x y z
SIZE 4 4 4
TYPE F F F
COUNT 1 1 1
WIDTH 105
HEIGHT 1
VIEWPOINT 0 0 0 1 0 0 0
POINTS 105
DATA ascii
-2.1402941 7.6195049 -1.8377606
2.2640145 7.6964746 -1.8190277
2.4179749 7.676065 -1.8039248
-2.3109779 7.72995 -1.8583374
2.9819403 7.458993 -1.7713283
2.1545026 6.9704304 -1.6844847
2.5067344 7.0460339 -1.6868925
4.3906651 6.4031086 -1.5640097
8.7961445 4.8480473 -1.2338022
9.4133463 4.0861669 -1.1027124
-2.4175658 3.0760758 -1.0008419
5.7404084 3.4169259 -1.0050411
9.6760464 3.7165349 -1.0252504
-7.1659327 2.4340699 -0.92093575
-3.2027316 2.5980978 -0.92788559
-1.8999952 2.0884066 -0.80808896
-2.7011969 2.2425749 -0.85336506
-2.8174756 2.4662681 -0.89520085
0.2722677 2.4510915 -0.86267281
-6.723567 1.3075709 -0.71499848
-5.9136829 1.4714842 -0.73349094
-5.3982458 1.4678912 -0.73012781
-5.7722406 1.5138774 -0.72977972
-7.6660986 1.6134462 -0.76921147
-5.4734125 1.6279411 -0.757321
-1.8865432 1.6893864 -0.74550682
-1.7111588 1.6689746 -0.74025297
-1.4878039 1.7531546 -0.75194055
-0.95492375 1.7071745 -0.74288571
3.6263111 1.7183523 -0.7076447
-1.7296939 1.8752766 -0.76681179
8.0579634 1.8673053 -0.70489395
-2.0140965 1.9388115 -0.77928543
-1.9212768 1.9327201 -0.78066409
-0.70442867 2.0645499 -0.79218727
3.0543041 2.0896995 -0.77998996
8.6589069 2.1617343 -0.75320798
-3.4069254 1.0495175 -0.63198543
-7.704711 1.114114 -0.67368257
-3.0367184 1.3395594 -0.68150073
2.5649753 1.4434118 -0.65082401
0.25285935 1.5398315 -0.68708622
4.1680636 1.6685907 -0.68475199
8.8091917 1.8444901 -0.68306804
-4.1002769 0.31794697 -0.50787431
-7.9537396 0.493554 -0.56784999
3.7511182 0.59155619 -0.50208271
1.4253944 0.68920457 -0.52680737
0.89753801 0.70829004 -0.5391677
3.6886587 0.70623374 -0.51643622
-1.3151979 0.92414713 -0.59032929
5.4444408 0.90332472 -0.53573191
5.631238 0.9798187 -0.54606009
5.4655123 1.0867083 -0.56237298
5.6760325 1.0634527 -0.56360435
8.6001968 1.022693 -0.52492368
-6.789216 -0.252994 -0.42679733
-3.8565774 0.1021268 -0.45545623
1.2644851 0.15434167 -0.4259831
2.8388116 0.18943949 -0.42057019
2.5182214 0.35488138 -0.45186755
-4.0508051 -0.66336608 -0.32178944
-4.1061568 -0.46146277 -0.36322781
4.3469067 -0.41078383 -0.30639571
4.4752326 -0.42858243 -0.30690384
-4.0000024 -0.33403939 -0.3880583
4.1106148 -0.33447555 -0.32033974
4.2884984 -0.37095416 -0.30279216
5.422874 0.13444066 -0.38618067
-2.1752243 -0.89574599 -0.26448619
-1.524663 -0.89400011 -0.26189861
-1.7258066 -0.78160954 -0.273197
7.6058025 -0.43950751 -0.2802946
7.9142876 -0.45473048 -0.26380497
-0.8446188 -1.6475139 -0.11959097
-0.71856046 -1.67392 -0.10013589
1.6354831 -1.5352964 -0.12652615
-0.54300117 -1.4869461 -0.14199671
0.88568604 -1.4499539 -0.14764409
1.0220954 -1.3164849 -0.15672897
1.3682148 -1.3813264 -0.14034815
7.0133495 -1.3209974 -0.10728101
0.91398054 -1.2744303 -0.17061499
6.9681244 -1.2668219 -0.12737542
0.91835189 -1.1678755 -0.18318237
1.0091964 -1.1349161 -0.1868113
2.0722322 -1.8455884 -0.066205353
2.8810666 -1.8552074 -0.057227209
0.33453918 -1.7378347 -0.098458841
0.66118592 -1.7535191 -0.079646066
4.7265029 -2.5035033 0.085571036
5.7407618 -2.5404034 0.09440656
4.8122468 -2.4659777 0.083886594
3.7435741 -2.3156333 0.045566861
4.138257 -2.3236814 0.051008087
6.8547821 -2.3658996 0.085901141
3.7264822 -2.1965122 0.030336225
3.1444354 -3.097702 0.18920073
8.1981697 -2.913645 0.19329824
3.7402785 -2.6976509 0.10390195
4.3743892 -2.633774 0.108612
8.1004992 -3.4287019 0.28136498
7.9884949 -3.3844173 0.27019796
3.1441817 -3.2316711 0.21119025
1.8066216 -6.053051 0.72194308
