# .PCD v0.7 - Point Cloud Data file format
VERSION 0.7
FIELDS x y z
SIZE 4 4 4
TYPE F F F
COUNT 1 1 1
WIDTH 128
HEIGHT 1
VIEWPOINT 0 0 0 1 0 0 0
POINTS 128
DATA ascii
-5.1122108 -5.421083 -1.3029269
-6.6881628 -5.0671172 -1.3319263
-7.8305664 -4.9011145 -1.3805232
-9.4255123 -3.7962813 -1.3537731
-3.893775 -5.7070823 -1.2601836
-3.4799185 -5.7671676 -1.2601831
-4.1105404 -5.6862822 -1.2833126
-4.598598 -5.5398655 -1.2889471
-1.386411 -6.1923199 -1.1973581
-7.2887239 -2.8533723 -1.1405708
-9.1740475 -1.3862391 -1.0759175
-4.7107759 -2.7428758 -0.98294687
-3.0951791 -2.1710637 -0.84146112
-4.5422087 -1.3002093 -0.8278262
-8.5876617 0.3030158 -0.85540915
-8.6198454 0.66893685 -0.82427096
0.18983972 -2.6252897 -0.71933091
-1.2668315 -2.0654829 -0.73049581
-6.5300093 0.76722026 -0.71605343
2.6468339 -3.2586141 -0.67450964
2.4910979 -3.1074486 -0.65138149
1.0213263 -2.6147592 -0.67195922
1.3448321 -2.5228841 -0.65601373
1.0599606 -2.3267491 -0.64633322
-0.7367419 -1.1080635 -0.60968113
-1.4880767 -0.84271955 -0.61301327
-1.3578523 -0.85439336 -0.61083388
-1.4857183 -0.75537378 -0.60289901
-1.8942106 -0.69700658 -0.62086749
-2.0697322 -0.54759103 -0.62777781
-2.5851147 -0.48743799 -0.64789593
-3.650456 -0.31274003 -0.67659229
-3.5512657 -0.29712731 -0.65924633
-3.648242 -0.12153457 -0.66214168
-3.3713207 -0.040069748 -0.63188869
-3.5350637 0.099370107 -0.62544531
-6.2598128 0.97703564 -0.67395329
-8.1729374 2.5983906 -0.60346496
3.1429188 -2.8857269 -0.59770465
2.5285864 -2.0672469 -0.53437769
1.6907358 -1.4942647 -0.52209288
1.0120108 -1.1044015 -0.51411861
0.51844817 -1.079806 -0.53638846
0.082652882 -0.86074567 -0.53627843
-0.51165414 -0.72642314 -0.56286192
-0.23731577 -0.74075508 -0.54356718
-0.72314274 -0.6440866 -0.5508883
-0.055377595 -0.61958587 -0.51775622
-0.75484991 -0.58372819 -0.55628246
-1.8268107 -0.33517337 -0.57742155
-1.7827797 -0.32935634 -0.58454406
-3.1520283 0.2799916 -0.58676922
-3.641427 1.1160096 -0.51672518
-8.1107273 3.2675397 -0.52910638
4.890552 -2.6574466 -0.48209941
5.1270223 -2.3638902 -0.44023401
5.6914825 -2.3462858 -0.41138452
4.9328094 -2.2939172 -0.44348174
5.2429953 -2.2588568 -0.41886395
5.541151 -2.2873757 -0.4173705
4.1188965 -2.1154532 -0.47352129
4.5039816 -2.1283975 -0.45313454
3.6914806 -2.0834489 -0.47951737
3.9791107 -2.087501 -0.47033077
3.5402617 -1.8669573 -0.47554988
3.0950878 -1.7287006 -0.47556904
3.5135779 -1.7066498 -0.44960189
2.914181 -1.5148958 -0.45799884
-3.3196776 1.3214517 -0.48257378
-3.4078369 1.9383237 -0.42491585
7.0753889 -2.7414455 -0.37556112
7.6498365 -2.4621511 -0.32849684
5.9239149 -2.2690945 -0.3846494
5.4863086 -2.1093163 -0.39520642
5.7249699 -2.1189184 -0.38314462
5.844883 -2.1108804 -0.38134289
5.324522 -1.9348576 -0.37655237
1.8702977 0.29984319 -0.32021281
0.94872576 0.42058212 -0.35358971
0.31119132 0.61538649 -0.37093455
-1.30463 2.0426507 -0.31147945
-5.5105691 3.6715891 -0.34986359
-7.8716946 4.4686723 -0.3773154
-7.189641 4.5136199 -0.34419221
-7.4085217 4.745698 -0.32693946
7.3976097 -1.4805223 -0.22835749
1.129607 0.88424617 -0.29951823
0.93025517 1.3543532 -0.25819588
0.26875165 1.6295755 -0.26617384
-0.88699353 2.5422974 -0.22687277
8.2376251 -1.0211149 -0.13348955
8.1417332 -0.95196289 -0.14081292
7.3288898 -0.30363742 -0.11102383
3.4530568 1.3494329 -0.12380271
4.0456524 1.3002027 -0.10061096
3.0249252 1.8519326 -0.1005915
1.518652 2.2190382 -0.13435376
-0.31370515 2.6231637 -0.18106224
-4.1053982 4.5902061 -0.17703563
-3.5128508 4.5496907 -0.13806717
-4.25807 4.6861944 -0.17169136
-4.157135 4.7202568 -0.16213918
-4.1387992 4.8485689 -0.14805599
8.6918421 -0.83053237 -0.08467529
8.2820091 -0.66239184 -0.099229179
7.9807286 0.42474592 0.0047621205
8.5070333 0.91098601 0.080000222
-2.9024343 6.1739249 0.064024046
-6.5585637 8.3172626 0.09711431
-1.1092381 7.5574131 0.29115358
-2.453022 7.9509573 0.27055916
-0.99664021 7.5689974 0.31178266
9.6580505 4.0934577 0.48013085
9.0572701 4.3611002 0.47479159
5.0887341 6.3386927 0.48369631
5.489995 6.3085208 0.49932379
4.4511857 6.578475 0.47600567
2.1604879 7.35219 0.44636914
8.4464283 5.724534 0.58774233
5.5106535 6.1811938 0.50349647
5.8744564 6.1694956 0.51452434
6.2873726 6.6200266 0.57826471
3.4385512 7.7295055 0.54866743
8.4717731 5.9212384 0.61540675
6.3860703 6.879159 0.60889184
7.2811913 6.9367318 0.66063577
9.3675222 6.4446068 0.73105812
9.0852394 6.5085211 0.71691597
