# .PCD v0.7 - Point Cloud Data file format
VERSION 0.7
FIELDS x y z
SIZE 4 4 4
TYPE F F F
COUNT 1 1 1
WIDTH 146
HEIGHT 1
VIEWPOINT 0 0 0 1 0 0 0
POINTS 146
DATA ascii
-5.7325945 -0.63055968 -1.3034446
-4.7761335 -0.82247365 -1.2469543
-5.8138428 -0.60993743 -1.2939682
-5.0882292 -0.74083114 -1.0476923
-3.3016081 -1.115901 -0.95451522
5.8572903 -3.0103898 -0.82485354
-1.7804809 -1.4035333 -0.62019229
1.3218961 -2.0283351 -0.43141943
-1.4060901 -1.4608436 -0.46936625
-4.2757268 -0.84510994 -0.43542713
4.5250273 -2.6996508 -0.39428017
1.2916086 -2.0084722 -0.38662535
-4.9454966 -0.69574583 -0.30734479
3.2130096 -2.4164133 -0.29487199
2.2204018 -2.208513 -0.28316996
-2.1315737 -1.2868612 -0.27237594
7.7586136 -3.3489008 -0.14613213
-1.5092434 -1.411566 -0.13186318
-2.489325 -1.2102658 -0.17803249
-2.0728831 -1.283057 -0.11562205
-2.859689 -1.1206408 -0.14665546
-5.5503712 -0.55858052 -0.11405137
1.6933161 -2.0576963 -0.056174278
6.9757333 -3.1642785 0.074654192
1.7513039 -2.0614357 0.085779011
-3.0914552 -1.0557368 0.068089634
-2.8926375 -1.0953319 0.039157365
-4.0360022 -0.85236704 0.079719327
7.4740906 -3.2517114 0.19119814
7.1289616 -3.1897316 0.12240343
6.5738177 -3.0652332 0.18081599
5.5032477 -2.8408511 0.12884553
2.5406022 -2.2214427 0.13587801
-0.21967375 -1.6309425 0.19771159
-2.0893326 -1.2572383 0.14969759
-6.5155706 -0.33110705 0.14665376
6.9048266 -3.1276565 0.29920155
6.6368341 -3.0665216 0.25959101
5.2270718 -2.7779045 0.28760231
2.4429901 -2.1925735 0.24195842
1.5669513 -2.011435 0.25220788
-1.6730309 -1.3350618 0.27932546
-2.0895879 -1.2379534 0.29944959
-3.0350032 -1.0503223 0.24142838
-5.3470302 -0.56454402 0.27991849
-6.3218822 -0.35671738 0.29968435
7.332263 -3.2138739 0.31233466
7.6682472 -3.2835882 0.38118538
5.7223272 -2.8718519 0.30672595
-2.9553437 -1.0567327 0.35078382
-5.7090249 -0.48130137 0.35730749
7.6172676 -3.2595673 0.41104823
7.1042166 -3.1533887 0.48700204
5.3003416 -2.7655745 0.43774021
-4.539937 -0.71814036 0.44809061
6.5742197 -3.041019 0.50012463
6.290976 -2.9692941 0.50754845
5.5426078 -2.8138003 0.5588218
5.0447645 -2.7080746 0.51872307
4.4098387 -2.5682333 0.58201796
1.7344321 -2.01491 0.55491138
-1.0826596 -1.4328797 0.50420594
-1.7100536 -1.2988437 0.5422501
-5.1245856 -0.57731712 0.5729236
8.0616798 -3.3315001 0.66475797
7.6200314 -3.2298017 0.66677123
7.0829601 -3.1208403 0.66472077
6.6689777 -3.0278416 0.68325186
6.1578069 -2.9312644 0.60896659
6.2771182 -2.9502563 0.64077246
5.7921343 -2.8602171 0.6127274
5.8602734 -2.8655927 0.64162272
4.4487128 -2.5805767 0.66508174
1.6420195 -1.9799016 0.63466561
0.94002593 -1.8357226 0.67826378
1.1044643 -1.8638791 0.66130918
-5.3761249 -0.5207715 0.68334925
6.9739933 -3.103224 0.70153058
5.3083081 -2.7443931 0.72754776
3.4455957 -2.3528302 0.76833993
-1.6742072 -1.2885756 0.70872533
-8.4531994 0.14301212 0.7008608
7.538414 -3.2062461 0.89866668
5.8885069 -2.8496954 0.86025834
4.6299496 -2.5846953 0.8803643
1.5721847 -1.9439342 0.83275849
-1.0608728 -1.408227 0.81981379
-4.1091642 -0.76399744 0.85782528
-8.4564724 0.16117258 0.83917367
7.0698929 -3.0879703 0.91733646
5.102994 -2.6721685 0.95515496
3.6698558 -2.3822329 0.94929588
1.6616766 -1.9701962 0.90578753
6.6810436 -3.0101423 1.0710008
7.0894995 -3.0805068 1.0877328
6.2520881 -2.8994579 1.0977882
5.2434969 -2.7027879 1.0770212
4.9182978 -2.6312668 1.0420077
5.0389814 -2.6514692 1.097436
4.3492022 -2.5016279 1.0679917
3.8960562 -2.4162397 1.0960447
1.5716177 -1.926761 1.095135
1.6228642 -1.9371369 1.046181
1.2726932 -1.8696947 1.0473695
-8.5151176 0.18261299 1.0834231
6.5652575 -2.9796653 1.1048617
3.2587011 -2.2881873 1.1180763
2.8192792 -2.1851962 1.1259323
8.0815153 -3.2673588 1.2804072
6.9132876 -3.0216577 1.2543128
6.5262403 -2.9431379 1.2941868
5.931921 -2.8272705 1.2523538
5.7366161 -2.7757525 1.2511801
4.5172882 -2.5307312 1.2864435
4.0795259 -2.4436295 1.2623229
4.2957006 -2.4840569 1.2825042
-6.7058473 -0.18749422 1.2182852
-7.8762841 0.075744927 1.2906559
3.7065835 -2.3446259 1.3035117
8.1056242 -3.2529485 1.4652307
4.4807243 -2.4763191 1.7898269
4.0830002 -2.3874199 1.7882279
-6.1146507 -0.25013879 1.7193005
-6.7212238 -0.12675832 1.7185212
-7.5390806 0.044292144 1.7599287
-7.3436127 0.0079024136 1.7863672
-7.8832054 0.12568241 1.7296147
1.5345238 -1.8338919 1.8769321
1.162744 -1.7611624 1.8758988
-6.523283 -0.15832563 1.8221385
-7.1034403 -0.03418307 1.8247811
-8.6380444 0.30739582 1.9200833
7.862854 -3.1576421 2.0528288
7.4725475 -3.0782781 2.0308614
4.8693419 -2.5254645 2.0072305
3.4283137 -2.2111022 2.0602825
2.665246 -2.0487342 2.0967388
-5.8152585 -0.26434299 2.1834877
-6.6445179 -0.10048782 2.1613245
-6.2096634 -0.17974241 2.1714885
3.3979063 -2.1939304 2.2618799
4.5625806 -2.4167173 2.4137139
-8.6377144 0.36241576 2.4968929
4.6805377 -2.4337745 2.539782
-6.6055555 -0.063095436 2.5822315
4.4264488 -2.373543 2.6574833
