# .PCD v0.7 - Point Cloud Data file format
VERSION 0.7
FIELDS x y z
SIZE 4 4 4
TYPE F F F
COUNT 1 1 1
WIDTH 70
HEIGHT 1
VIEWPOINT 0 0 0 1 0 0 0
POINTS 70
DATA ascii
4.695684 6.2878542 -1.5096709
3.956852 6.765893 -1.529137
3.3169053 7.5388227 -1.5987788
6.6113739 4.6843371 -1.421545
3.0710616 7.0046334 -1.4825833
2.1626756 7.4772072 -1.4802496
1.0740139 7.9296174 -1.4628255
0.52122205 7.2864799 -1.3154706
-0.55173707 7.439796 -1.2341266
-0.85883832 7.6070313 -1.2281649
4.8470526 3.7909923 -1.1371585
5.1317739 3.3381476 -1.0890688
-1.0461304 6.4749718 -1.0405262
-2.8377471 6.6784215 -0.9085238
-2.8424253 6.9884615 -0.96404338
7.3861146 0.37475967 -0.80969512
-6.6135807 8.4070826 -0.85177881
-6.5907226 8.4380054 -0.85887957
8.6360569 -1.2593811 -0.65513802
7.9953589 -0.90554613 -0.66520047
8.2475138 -0.8757621 -0.6825372
8.1462059 -0.73016393 -0.69094563
4.9200182 0.56075639 -0.62710178
5.0212898 0.52186239 -0.62845069
-3.1148987 5.1232843 -0.63684011
8.1385574 -1.8602972 -0.52813017
7.7639451 -1.5097821 -0.53495604
5.3057423 -0.21294862 -0.53399533
8.2203598 -2.3095899 -0.45466572
4.110498 -0.33060753 -0.40919471
1.6069987 1.4106145 -0.46954852
2.8450568 0.18238097 -0.37223294
-0.34586412 1.825153 -0.36181843
-0.18091042 1.8195353 -0.36462158
-0.69154775 2.0884612 -0.37209314
-0.49091297 2.0511503 -0.38564682
6.9593253 -3.0183914 -0.22303665
6.7723017 -2.656225 -0.27842206
5.5003147 -2.8351746 -0.14078827
4.4541664 -2.4580863 -0.10365109
0.29561329 0.37661594 -0.18215697
-3.4447753 1.9008585 -0.10370103
-3.4699883 2.0319805 -0.12531479
-3.356039 2.0165582 -0.13534637
-5.7869811 3.6429632 -0.16374627
-7.7931051 4.5829239 -0.13668212
3.7268503 -2.282064 -0.057306431
-3.3291116 1.6867565 -0.070706055
-6.1637039 3.3501394 -0.094585955
1.4965382 -2.044811 0.095026068
0.54238856 -1.2742705 0.060115296
-1.6902707 -0.75985736 0.16812116
-1.0108416 -1.4859087 0.233053
-2.0821319 -1.1681323 0.27452993
-3.159493 -0.9484154 0.33098698
-3.2242532 -0.77840376 0.30538416
5.9564171 -6.7504444 0.46049547
-5.3179026 -0.57591963 0.45155722
-5.8805523 -0.45601594 0.494966
-5.6855402 -0.48381636 0.47337779
-6.4201322 -0.0082945824 0.47085905
-8.5194588 1.0795729 0.47683007
-7.129024 -0.18285595 0.56473964
-7.6949081 -0.53918445 0.66056705
6.4286118 -9.2315474 0.79856586
2.8978696 -6.9859734 0.74810523
6.5935435 -10.340728 0.96986085
2.7421687 -11.95549 1.5608752
2.8502083 -11.96245 1.5554717
1.9212848 -11.309156 1.5384625
