# .PCD v0.7 - Point Cloud Data file format
VERSION 0.7
FIELDS x y z
SIZE 4 4 4
TYPE F F F
COUNT 1 1 1
WIDTH 92
HEIGHT 1
VIEWPOINT 0 0 0 1 0 0 0
POINTS 92
DATA ascii
0.10334176 7.6843963 -1.8900833
-1.9444267 7.5932875 -1.7041988
-1.9450728 7.6773872 -1.7145264
4.9680519 4.3720965 -1.6364675
5.4408679 4.4084072 -1.6881702
0.6928308 6.1928034 -1.6440055
-3.251286 7.8336048 -1.6437601
2.4254832 4.436614 -1.4272468
8.6654282 1.2666686 -1.3210071
2.0832436 4.0238538 -1.3204931
2.5652986 4.0500531 -1.3663108
1.1729436 4.6099329 -1.3564845
1.2743545 4.6587706 -1.3821317
1.7632049 3.4188681 -1.1672866
8.5605049 0.14820427 -1.0753207
-5.7426386 5.9889021 -1.0329177
2.7562275 1.870327 -0.94086361
-3.2055688 4.6675148 -0.994672
7.1605434 -0.31828347 -0.87108099
2.8087213 1.3476064 -0.82360184
1.2653341 2.1582289 -0.86820042
0.43432495 2.4077735 -0.83721423
2.2860746 1.1450787 -0.74511778
1.6305922 1.3145345 -0.72481763
0.90725124 1.6804587 -0.73395538
-2.7209775 3.2405291 -0.73890299
-2.5355048 3.2628717 -0.75021869
-2.8892088 3.3715358 -0.75079703
-6.0723367 4.7375898 -0.76145601
7.4499769 -1.4523489 -0.65553844
6.9575486 -1.1752241 -0.66123599
4.4694619 -0.0013516247 -0.68775761
4.0946589 0.082103968 -0.67616618
2.8636847 0.19255222 -0.60190809
0.2108095 1.7307479 -0.68725288
-1.8252654 2.4532366 -0.64711118
-2.5559387 2.7874479 -0.6599676
-2.9089074 2.8605814 -0.65073907
-2.7743227 2.8378286 -0.65243018
-4.6798248 3.4754465 -0.62571841
-5.0933404 3.6068869 -0.60529304
7.2021108 -1.9532624 -0.53355062
6.8874788 -1.8816888 -0.52390862
-4.6729031 3.3540621 -0.58390892
-3.0945301 1.9195001 -0.43669331
7.4230676 -3.0551686 -0.31935698
6.9324555 -2.8758836 -0.32676211
6.0599284 -2.1341105 -0.38759708
2.8796883 -1.1638501 -0.32439858
2.7190204 -1.0781219 -0.32189158
-3.1229429 1.4256952 -0.32400906
-3.4347892 1.5711832 -0.33287653
-7.9813433 3.5868263 -0.35146001
-7.9856024 3.6249309 -0.36640286
7.1327982 -3.1455617 -0.2908873
3.1112049 -1.7443267 -0.21556169
-3.721102 1.2479156 -0.23675856
-8.1123266 3.2908902 -0.28682214
2.2685828 -1.8912029 -0.10951671
-3.5378826 0.57360291 -0.11505056
3.2956784 -2.7199235 -0.02861291
2.172694 -2.212873 -0.036753848
2.2221475 -2.2134819 -0.051902119
2.7236483 -2.250958 -0.083946705
0.57738888 -1.4936732 -0.057312418
-0.19116667 -1.268649 -0.03796006
-1.3185704 -0.65739352 -0.066894144
-0.48848397 -1.5262659 0.043755352
-0.28362703 -1.5514733 0.034131337
-1.8278543 -0.7247197 0.0055268705
-3.9127479 -0.27604228 0.099230215
-3.7723145 -0.064543292 0.040742043
-3.2642834 -1.0205748 0.19480893
-4.4044533 -0.39548913 0.16187939
-8.4248619 1.1899748 0.17166883
-3.7875133 -1.0156907 0.22248006
-5.4786234 -0.54661727 0.27914327
-6.2280807 -0.16717508 0.27745134
-5.9151974 -0.15343148 0.24611129
-8.5560102 0.68718213 0.28924137
-6.1446009 -0.49977288 0.32250172
-5.8924136 -0.45497614 0.30748773
-8.2195711 0.32454541 0.34458402
-8.2245836 0.50484908 0.30232966
3.3703194 -7.060452 0.85217494
2.4177399 -6.5311584 0.83637679
2.876539 -11.93698 1.8907301
3.1288035 -12.42229 1.9702208
2.7236774 -11.917128 1.9154762
2.3112655 -11.859974 1.9301169
-0.51310062 -11.653997 2.1412446
6.0414152 -15.567335 2.363318
