# .PCD v0.7 - Point Cloud Data file format
VERSION 0.7
FIELDS x y z
SIZE 4 4 4
TYPE F F F
COUNT 1 1 1
WIDTH 102
HEIGHT 1
VIEWPOINT 0 0 0 1 0 0 0
POINTS 102
DATA ascii
9.4703503 4.7008705 -1.4687953
8.5643024 4.1508021 -1.3054564
9.070652 4.1904411 -1.3634692
4.4847536 6.437007 -1.1354057
-0.11437573 10.884558 -1.1288933
8.6545448 1.2405295 -1.0047921
2.8186939 7.0034642 -1.015152
2.5233898 7.6115408 -1.0514692
2.0786061 7.1250324 -0.95081985
1.3768055 7.6507721 -0.92654705
0.50378346 8.1772137 -0.90116072
8.8193512 0.017794937 -0.87579679
8.4636536 0.24291091 -0.8751052
5.4387794 3.0327814 -0.85760182
8.2605476 -1.8650688 -0.61743712
6.3101745 0.35213503 -0.64029217
5.4533863 1.245096 -0.65446699
-1.0674509 7.5101333 -0.65633601
5.1171074 0.61440361 -0.54924434
4.5822096 1.6538209 -0.5997923
-2.7411163 7.9350271 -0.51394165
7.903749 -3.3177643 -0.41371551
7.673583 -2.5390358 -0.46284553
7.0271912 -2.4447575 -0.4119007
6.9207315 -2.1236601 -0.4367007
3.9074326 0.73483837 -0.43151331
4.0592418 0.72247452 -0.44419581
3.9228177 0.89363778 -0.44747064
6.2547073 -2.4162385 -0.32245007
6.5522866 -2.4801517 -0.35357508
6.0502691 -2.2765861 -0.33207056
6.3037033 -2.2957454 -0.3462109
6.4902859 -2.2585216 -0.38230127
6.4290147 -2.1901906 -0.37458879
2.7374721 0.95230949 -0.33158374
5.7475948 -2.636167 -0.25517473
5.7238159 -2.4520636 -0.27986458
5.0678015 -2.1220138 -0.24658243
2.6250877 0.67724001 -0.27678862
0.67185545 2.1467514 -0.23054251
0.47033605 2.3511629 -0.240615
0.1247606 2.462822 -0.22577572
0.49775463 2.4104581 -0.24111181
3.6078687 -1.7225407 -0.11700767
3.5504906 -1.6944163 -0.12187954
0.98192769 0.58019543 -0.10555319
1.017386 0.74945909 -0.11636139
1.0673032 0.81128103 -0.12324141
0.93766928 1.4230514 -0.19100773
0.67315733 1.6149776 -0.18401682
-0.91562992 2.7101419 -0.13246879
-6.3822441 8.1792097 -0.15091434
3.2762945 -2.3903906 -0.0034985784
3.2491834 -1.8041942 -0.077450149
3.1228263 -1.7398226 -0.070377991
3.3479354 -1.613306 -0.099391364
2.1543803 -2.1516709 0.074068449
2.3476238 -2.150239 0.05271633
0.88650864 -0.99584198 0.098107032
1.8926387 -2.2191927 0.1113985
0.98378718 -1.2143948 0.10346224
0.6654309 -1.0785623 0.12564605
0.43535316 -0.98315823 0.13119221
0.75969422 -0.98824543 0.10727952
0.51986271 -1.8422467 0.2320738
-0.2123487 -1.5556488 0.27733704
-0.12531403 -1.5543389 0.26552176
-3.3744864 1.7491968 0.2469525
-5.7874966 3.5935814 0.29985723
-5.7618599 3.6727443 0.27423942
-5.7455969 3.8072519 0.26897335
-2.1968374 -0.73616624 0.38736838
-3.8541756 0.85157859 0.3844327
-3.6275613 0.84254116 0.3719992
-6.3026381 3.4447536 0.35705993
-6.1499453 3.5058033 0.34773478
-7.3590946 3.5823119 0.46587187
-7.149169 3.5804629 0.44682455
-7.2777681 3.6617193 0.45004827
3.187845 -6.9114742 0.50533366
-3.1653399 -0.95017445 0.51827967
-3.355197 -0.87753403 0.53396428
-3.4460948 -0.7543081 0.53597641
-3.8579383 -0.66690016 0.5717116
-4.2431827 -0.53438675 0.58158445
-4.048418 -0.077657998 0.52515739
-8.0764236 3.3211088 0.57188451
-8.0678024 3.4326415 0.54982615
6.4975863 -11.148425 0.62337995
-4.2963738 -0.81725484 0.62701607
-5.4985857 -0.33920181 0.69561678
-8.1683092 2.7435098 0.6555779
-5.9110212 -0.32254523 0.73884863
-6.413703 -0.19350249 0.79197204
-8.3958845 1.7639745 0.78743929
-7.5477262 -0.085974827 0.89475858
-8.2670879 0.52777922 0.89782977
-8.5802841 0.95427012 0.88181967
-8.4405355 -0.44543046 1.0248674
-8.3781786 -0.40720528 1.0166738
6.1835756 -15.743039 1.1667413
1.1496599 -11.166905 1.1937822
