# .PCD v0.7 - Point Cloud Data file format
VERSION 0.7
FIELDS x y z
SIZE 4 4 4
TYPE F F F
COUNT 1 1 1
WIDTH 88
HEIGHT 1
VIEWPOINT 0 0 0 1 0 0 0
POINTS 88
DATA ascii
-6.0272431 4.3147116 2.7778239
7.9579797 6.8276892 2.7714434
-8.0022106 2.576683 2.8789465
-6.6058083 2.5035229 2.8994017
-6.3099256 2.6816788 2.8853872
-7.4695663 2.9010015 2.8698111
-6.9545794 2.9234686 2.8687503
-7.6366062 3.0373988 2.8549831
-7.5781717 3.0495682 2.8512797
-6.6729612 3.3662574 2.8383193
-3.8928502 3.4776275 2.8529072
-7.4288373 3.6299489 2.8070126
-4.2788849 3.7789948 2.8424196
-6.5955486 1.4331266 2.9676545
-4.3276691 1.5326098 2.9827182
-6.3406477 1.629647 2.9666562
-8.1160622 1.7074542 2.9272401
-4.6811266 1.7510124 2.9647684
-7.7508307 1.8915958 2.917098
-6.9472485 1.821097 2.9469852
-7.303216 1.9762969 2.9230475
-7.3115034 2.1860528 2.908524
-4.6312833 2.1562679 2.9410923
-6.5732002 2.2522941 2.921926
-4.003993 2.2145097 2.9402723
-7.2453861 0.3253603 3.0382597
-7.3790512 0.88882625 3.0021019
3.3412375 1.2707145 3.093976
3.461426 1.2994438 3.0931287
3.1104083 1.3474529 3.0915723
3.2699585 1.7861619 3.0549052
5.8348479 2.2565737 3.0588014
2.5128043 2.48826 3.0011473
-8.4671688 -2.0513539 3.1772385
4.3947215 -0.2181741 3.1992271
3.8999298 -0.13920319 3.1886964
4.1208134 -0.16584241 3.1936314
3.5137773 -0.069076598 3.18817
3.7170231 -0.085327432 3.1880174
4.579874 -0.090890221 3.1966047
3.3405783 0.29972389 3.1569047
3.4784658 0.26407039 3.172554
3.6819344 0.22668689 3.1662393
4.5775952 0.63016123 3.1469462
4.2905626 0.86001474 3.1362314
4.5172343 0.82090116 3.1471558
3.3307614 0.94158852 3.1085682
3.4858675 0.90425682 3.1230097
3.7228575 0.92282575 3.1186814
3.8206325 -1.4352731 3.2894938
4.6164289 -1.4058628 3.2953918
3.7842093 -1.3960172 3.2796111
4.5980048 -1.0248599 3.2693019
5.241756 -1.0252373 3.2795045
7.661787 -1.0565388 3.2951643
4.8570795 -0.97553349 3.2615972
7.312747 -0.97154546 3.2933471
4.3011026 -0.86433303 3.2395105
4.4159031 -0.87678701 3.2572141
8.0873613 -0.85600054 3.2846622
8.5063629 -0.84740019 3.289762
3.6267371 -0.7512784 3.2406204
4.9059811 -0.65138984 3.2502637
5.1017761 -0.67336488 3.2374327
8.1328049 -0.54625082 3.276268
6.8682203 -0.21872906 3.2409823
8.348217 -0.27446669 3.2569613
8.6985426 -0.29963487 3.2552981
7.3035402 -0.1738883 3.2287574
8.7874165 -0.058542043 3.2530401
6.7752609 0.057248823 3.2165811
8.0811214 0.088815279 3.2220836
7.0511551 0.18164173 3.2089972
6.6839929 -2.2152839 3.3770449
8.1593533 -2.2721729 3.3853467
6.6920776 -1.8018103 3.3439445
6.9990082 -1.8627105 3.3469791
7.4382877 -1.8091073 3.3455348
8.1653004 -1.5111325 3.3362823
7.5446596 -1.4167142 3.3294358
8.4882193 -1.4882416 3.3362963
6.9117823 -1.301533 3.3076565
7.6603518 -1.3561962 3.3303699
8.1300268 -1.3016276 3.3256564
6.5857711 -1.2139831 3.305867
7.1105828 -1.2438936 3.3012729
8.6122036 -0.95081878 3.3033257
5.5202703 -5.1534796 3.5522118
