# .PCD v0.7 - Point Cloud Data file format
VERSION 0.7
FIELDS x y z
SIZE 4 4 4
TYPE F F F
COUNT 1 1 1
WIDTH 111
HEIGHT 1
VIEWPOINT 0 0 0 1 0 0 0
POINTS 111
DATA ascii
2.965847 -8.487525 -1.8075175
5.2464337 -8.0118895 -1.74615
5.150281 -7.9073954 -1.7393916
-1.7726095 -6.7031746 -1.5320657
-2.1138759 -6.5905981 -1.5198865
-2.9457738 -6.1567802 -1.436523
-4.6504087 -5.5356178 -1.3406004
-0.8082546 -4.8367167 -1.2433665
-2.1362495 -4.5338683 -1.1966306
-2.8617377 -4.3041797 -1.1556613
-8.1874733 -4.2414951 -1.1407026
-3.0991087 -4.247016 -1.1521773
-0.71627671 -3.4956021 -1.0475237
-2.5466409 -3.0514977 -0.97779983
8.3126507 -2.8301194 -0.99070024
-0.48657796 -2.7566934 -0.9374122
8.3142433 -2.7014253 -0.97022581
-4.2835817 -2.5645971 -0.90250492
-0.093966298 -2.5783243 -0.91412508
0.65369475 -2.3332241 -0.87375873
-4.5596499 -2.197077 -0.84059066
0.023391247 -2.1393592 -0.84331226
5.2927599 -2.1583436 -0.8746593
5.9143677 -2.0977502 -0.87968087
2.91045 -1.6379359 -0.78402174
4.1597757 -1.5760684 -0.77441812
4.3077135 -1.5566684 -0.77332497
1.060631 -1.4031584 -0.73838353
2.9074538 -1.328979 -0.74062252
8.3948393 -1.2762735 -0.76461065
0.30613899 -0.9014104 -0.66360086
0.72014153 -0.9346621 -0.673976
0.84379017 -0.94979537 -0.67428023
-0.88247913 -0.75818461 -0.63857812
8.5547848 -0.70069671 -0.67899686
-3.3229949 -0.6178574 -0.60684419
-3.0719411 -0.64160335 -0.61234945
-2.8403084 -0.69391775 -0.61640757
-2.7603579 -0.661201 -0.624273
-0.71431321 -0.6785652 -0.62706298
8.7433567 -0.6780321 -0.6736083
-3.3266737 -0.54817492 -0.60323596
-1.0409104 -0.52324879 -0.61040008
-0.9139241 -0.52168977 -0.61015773
-0.72566164 -0.57479233 -0.61848962
7.8202152 -0.43011764 -0.63626748
7.2268467 -0.34228027 -0.61185247
-6.674974 -0.51927388 -0.56998622
-6.1825342 -0.46982747 -0.56447661
-3.1012058 -0.37286055 -0.5810703
-1.378814 -0.3867574 -0.58055162
-4.6998224 -0.093673117 -0.51874888
-3.6659303 -0.087625325 -0.52219427
-3.6713197 0.085204288 -0.50147194
1.0836554 0.19135346 -0.50794977
5.1772494 0.31453741 -0.5038588
-8.246151 0.19654825 -0.46112999
1.2838986 0.2836189 -0.49845144
-3.5109487 0.513502 -0.44407588
3.3400817 0.59145176 -0.45199499
7.4161711 0.50368899 -0.4811722
3.3009684 0.7684021 -0.43488967
4.0630817 0.84398323 -0.42555037
-3.2484136 0.92841107 -0.37409505
-8.6174173 1.0573263 -0.32572383
-3.4114547 1.0498016 -0.35830581
-3.106766 1.1164417 -0.35728675
3.8770561 1.1594748 -0.37522531
-3.2434649 1.2378554 -0.32119235
-3.0802889 1.2171676 -0.33400211
-8.465476 1.3060337 -0.30557823
0.68195748 1.3880084 -0.32466763
3.2843976 1.3870661 -0.33318403
2.8556011 1.4697407 -0.31710973
0.14514603 1.5728383 -0.29470849
0.12467963 1.6225373 -0.28465706
4.1717429 1.6590941 -0.29292369
5.4782372 1.6694405 -0.29692999
1.7223186 1.7203901 -0.27854633
4.7008743 1.8530658 -0.26547775
-3.3294153 2.0195081 -0.21540803
-0.68429756 2.65347 -0.12192044
9.2801704 2.7720752 -0.15622611
-8.2195501 2.6600859 -0.089608133
-1.628234 2.8948636 -0.096113682
-1.1198828 2.8271828 -0.090970904
5.7657852 3.123059 -0.079688512
9.4963684 3.5636482 -0.043936573
-3.5246234 4.5725288 0.17481188
9.7367611 4.8526077 0.15815145
-7.7781658 4.7252765 0.20807892
-7.3550038 4.7242522 0.21680662
-7.4158106 4.8248749 0.23232079
-3.8406124 4.8835068 0.21689501
-3.7318189 4.9095469 0.22490454
-7.5167913 5.6267653 0.34042147
-7.3092313 6.3261013 0.44956246
-1.8707128 6.6808243 0.48674873
-7.3444004 6.8734541 0.53070283
-5.0888386 6.9077067 0.53706372
-4.9699183 6.9648337 0.53749889
-1.4262828 7.6007366 0.61291718
-2.1712046 7.7719631 0.6463995
3.0101132 7.766151 0.61920905
-2.6277585 7.8798828 0.65962434
-1.0282619 7.8542399 0.65093982
2.573653 7.8379912 0.64547122
-7.0703955 8.267704 0.74723494
-4.2427115 8.9253159 0.83413267
-6.6371851 9.0538788 0.86058468
-6.2819676 9.0457096 0.85595077
