# .PCD v0.7 - Point Cloud Data file format
VERSION 0.7
FIELDS x y z
SIZE 4 4 4
TYPE F F F
COUNT 1 1 1
WIDTH 72
HEIGHT 1
VIEWPOINT 0 0 0 1 0 0 0
POINTS 72
DATA ascii
3.0746758 6.6324482 -1.9289199
-1.0024436 5.8273773 -1.8120754
4.6238279 6.2845311 -1.8238275
4.955626 6.2436657 -1.8131535
3.758069 6.3339653 -1.8524892
3.9369893 6.3283753 -1.8546624
4.4276414 6.3173594 -1.8338214
5.4302917 5.8212109 -1.7071649
4.689096 6.1506052 -1.7966352
-3.1168275 5.0644159 -1.6684883
5.6896992 4.4241815 -1.4014306
3.040678 4.5729694 -1.4586117
2.3532336 4.6098285 -1.4810762
4.882906 4.7150469 -1.4649277
-3.7574916 3.4854984 -1.3043942
-7.2237434 3.6196036 -1.3806185
4.9287491 4.2018242 -1.3517479
-2.6608725 3.1147718 -1.2085545
9.2091875 3.9035358 -1.2267749
-2.8151433 2.283886 -1.0236118
-1.495683 2.2941127 -1.0019609
-2.5011044 2.5268836 -1.0686685
5.6540279 2.9589128 -1.0472018
-7.4915919 1.4318246 -0.89011502
-5.3991709 1.53997 -0.89234036
4.5499644 1.8996892 -0.83132458
8.2311535 1.9656956 -0.80106097
8.8667469 2.3615122 -0.87500513
-8.6422787 0.65806901 -0.72428465
-6.9805117 0.75330436 -0.71877921
-7.0890799 0.26757169 -0.61387938
5.3994255 1.2060864 -0.66643238
8.660284 1.3990436 -0.65687698
0.86081803 0.38936529 -0.53779864
3.8380842 0.59140348 -0.53495067
4.5596561 0.56045306 -0.51278079
5.3586926 0.76139593 -0.54779845
5.4662161 0.74407268 -0.54869914
-6.281899 -0.30119523 -0.46410909
-5.471571 -0.31841996 -0.45181674
-2.6078503 -0.81059515 -0.30062348
-2.6253829 -0.75204182 -0.32041353
-2.3003607 -0.74062347 -0.31296441
-3.8617635 -0.68438727 -0.34769011
-0.18859938 -1.5603623 -0.10061195
-0.97891468 -1.4106209 -0.15018487
0.047492649 -1.6986749 -0.064628661
1.4989492 -1.6479881 -0.051102981
2.0689225 -2.2262063 0.074368544
1.8601975 -2.1767969 0.078099921
2.6431973 -2.0621874 0.052978236
3.3250713 -2.0842471 0.06744346
2.2653978 -1.9485331 0.017291974
2.5343499 -1.9341972 0.032400236
2.9436762 -1.905129 0.013733285
3.1336455 -2.4960201 0.15027365
5.0022039 -2.1841459 0.11962945
4.1253548 -2.9922807 0.29310039
4.6704473 -2.8867846 0.27836341
5.3988447 -2.5880499 0.22092295
6.1112356 -2.9342051 0.30098712
6.8249149 -7.0867782 1.2626872
7.3096776 -7.010972 1.2429314
1.7055469 -9.4471798 1.727576
5.3974695 -9.15168 1.7142808
4.9516602 -9.7614689 1.8433287
1.0283674 -10.944556 2.068552
2.1229088 -11.173321 2.1403556
1.5301565 -11.037397 2.1021042
3.2670991 -12.040125 2.358104
4.5747342 -11.864433 2.3246086
5.5140572 -12.288803 2.4400384
