# .PCD v0.7 - Point Cloud Data file format
VERSION 0.7
FIELDS x y z
SIZE 4 4 4
TYPE F F F
COUNT 1 1 1
WIDTH 75
HEIGHT 1
VIEWPOINT 0 0 0 1 0 0 0
POINTS 75
DATA ascii
-0.17559366 10.879339 -1.3433093
6.7482533 15.197604 -1.3622861
6.8146262 15.224831 -1.3612154
-2.7871828 7.776926 -1.2257626
1.5726118 10.55444 -1.2465934
0.85363734 10.696955 -1.2942891
-1.2141423 7.3649616 -1.130018
-0.66447127 7.4640589 -1.1126672
-0.33113956 7.471262 -1.1062895
-0.27690482 8.2275772 -1.1609316
-3.20013 4.4904475 -1.0082446
-3.0549338 5.1019301 -1.0534179
-2.9812679 5.5249734 -1.0774565
-1.2787006 5.6720953 -1.0236793
-0.66526103 6.7238188 -1.0728333
-0.919186 7.0827203 -1.0991603
-0.53047776 7.0995989 -1.0949476
0.76629496 7.2177072 -1.0450529
1.0620365 7.2846861 -1.0409791
0.31595951 7.4040403 -1.0694586
1.3002977 7.4841838 -1.0374619
-8.1841354 0.70091641 -0.94663477
-6.2754107 1.154717 -0.90190005
-6.1432314 1.2545102 -0.91641915
-1.8715684 4.8315926 -0.98725367
4.0986953 7.3543034 -0.91545659
-9.1827154 -1.1565802 -0.86563176
-6.6676302 -0.015830621 -0.84655929
-7.5505695 0.31593424 -0.89582086
-2.4909725 2.6891866 -0.85686243
3.3098388 6.475791 -0.89743078
4.3824553 6.4807663 -0.85084951
3.9576869 6.5355392 -0.87434024
-9.4462233 -2.4451656 -0.79367411
-9.4289017 -2.3461978 -0.7916379
-6.7841978 -1.0186763 -0.77637982
-6.7823305 -0.95275104 -0.78142965
-3.8295641 0.14627306 -0.74099255
-1.9677982 1.3862013 -0.74192768
-1.7086403 1.3382375 -0.73089105
-0.1205999 1.7394328 -0.70103258
-1.5731046 2.2266729 -0.79133546
-0.028859198 2.2616444 -0.72948897
0.071613722 2.5228546 -0.75290674
-0.41256872 2.6042149 -0.77954066
5.8409247 5.9796824 -0.76466072
-3.9455318 -1.2505088 -0.65162516
-2.6862035 -1.0551186 -0.61027908
-2.5585301 -0.96370888 -0.60985816
-2.6898293 -0.87584209 -0.61853081
-2.198101 -0.72724235 -0.60467708
-2.7111101 -0.14908813 -0.66374129
-0.23890674 1.0950003 -0.66559976
-2.0479817 -1.5725992 -0.54623997
-2.5488455 -1.4031043 -0.58370501
-1.8398738 -1.4363872 -0.55441618
-1.0599406 -0.74759805 -0.56496096
0.93085986 0.80351722 -0.59101439
2.9355574 1.7520499 -0.57325417
3.2155235 1.7942789 -0.56660569
0.27554569 -1.7832277 -0.43973708
0.58666408 -1.2761444 -0.45514482
4.4520693 0.88227165 -0.46314725
5.0555935 0.99102426 -0.44754136
5.1380496 1.031882 -0.4419378
2.8088574 -2.2711463 -0.3003433
1.9098629 -2.1070209 -0.35184458
7.4286785 0.49437904 -0.30537412
3.1160948 -2.3551588 -0.29550892
4.4727802 -1.5197706 -0.28793174
8.4894447 0.52466816 -0.27974194
6.7389822 -2.6381454 -0.11223759
7.443203 -1.6387944 -0.16387695
8.4338779 -2.2042661 -0.075969249
6.4395156 -8.983448 0.30958867
