# .PCD v0.7 - Point Cloud Data file format
VERSION 0.7
FIELDS x y z
SIZE 4 4 4
TYPE F F F
COUNT 1 1 1
WIDTH 88
HEIGHT 1
VIEWPOINT 0 0 0 1 0 0 0
POINTS 88
DATA ascii
9.8718748 4.9236956 -1.3060231
9.5642242 3.526248 -1.2015846
10.062101 5.7984524 -1.1876646
10.050954 5.8042803 -1.1236253
8.5372505 -1.107435 -1.0342019
9.7982521 4.5877757 -1.0195892
8.5602875 -1.073483 -0.95633
9.8714132 4.9452267 -0.90525579
8.2956581 -2.2667949 -0.87913549
9.6290588 3.7543266 -0.27061039
9.6557236 3.9029365 -0.28704819
9.8215923 4.6882563 -0.23938614
8.3436117 -2.0595546 -0.046278123
9.6229343 3.7502575 0.088095985
9.6623192 3.9335008 0.081891082
9.7108231 4.1373801 0.035478521
7.2693429 -7.0154266 0.16643439
8.3889036 -1.8469641 0.11057395
8.41679 -1.7498237 0.14741506
8.4821873 -1.5049061 0.16606069
8.5175333 -1.3040426 0.10450156
8.8251781 0.11329541 0.16166869
10.021083 5.5581145 0.18260516
9.6280422 3.7435017 0.22285825
8.463377 -1.5265338 0.31099939
8.5624256 -1.1052766 0.32111984
8.1595268 -2.9235592 0.48216254
8.4931679 -1.4490216 0.48964748
8.5572224 -1.109736 0.50261158
9.5486698 3.3591328 0.51159656
8.2366123 -2.6348045 0.6736815
8.3756428 -1.9446225 0.63784289
8.560688 -1.1140375 0.65199399
9.6404295 3.8018734 0.60292447
8.1195536 -3.1548102 0.79314065
8.2322311 -2.6952055 0.84169447
8.6805687 -0.56823736 0.87626499
6.4992547 -10.562208 0.98156863
7.2764382 -6.9963074 0.99504745
8.4872513 -1.5010597 0.94603431
9.5218048 3.2673929 0.9172681
8.1474361 -3.0878131 1.0764883
8.2289171 -2.6949465 1.0947609
8.3234615 -2.2284641 1.0878028
8.8421612 0.12238765 1.0727088
5.9673271 -13.002409 1.3551185
8.2360649 -2.6797805 1.3382342
8.3104353 -2.3354106 1.4470119
8.8091927 -0.062522337 1.4365526
8.8335361 0.046557233 1.4259868
7.5236158 -5.9233837 1.5078015
5.9771948 -13.031295 1.6923656
7.5957179 -5.5688353 1.6200289
8.2743893 -2.5135541 1.6710491
8.3062429 -2.3182244 1.6505619
8.6125011 -0.93328279 1.6649735
9.1222363 1.3816332 1.661469
8.2235909 -2.6993675 1.7112075
8.8103848 -0.076608092 1.8518387
8.2287407 -2.6842077 1.9214976
8.6303053 -0.91230029 1.9432755
6.7566261 -9.4484501 2.0616188
8.7768574 -0.19127759 2.0987155
7.116365 -7.8091226 2.1908505
7.967618 -3.9143376 2.1404572
8.02563 -3.6972535 2.1077766
8.4338341 -1.8379978 2.1440892
7.9310703 -4.0624132 2.2898831
8.8223286 -0.030510534 2.2293661
7.1303396 -7.8017197 2.485374
8.5274811 -1.4365033 2.4632642
8.18295 -2.9643314 2.5553794
8.6366272 -0.89303333 2.5085013
8.8201799 -0.042992152 2.530314
7.0415497 -8.2317142 2.7053723
8.1948013 -2.9663711 2.7077167
8.3367653 -2.2996035 2.7748775
8.3781776 -2.1121273 2.7786622
8.5030441 -1.4777064 2.7213855
8.6048965 -1.0235958 2.7532873
8.5059414 -1.4989948 2.8442941
9.0839825 1.1311852 2.8701711
9.2093639 1.6884744 2.8951211
8.2665348 -2.6585951 2.9568748
8.7174377 -0.52021396 2.9125738
8.3188972 -2.3413777 3.0169144
7.7414212 -5.0586491 3.296674
8.6972208 -0.68821198 3.2861922
