# .PCD v0.7 - Point Cloud Data file format
VERSION 0.7
FIELDS x y z
SIZE 4 4 4
TYPE F F F
COUNT 1 1 1
WIDTH 66
HEIGHT 1
VIEWPOINT 0 0 0 1 0 0 0
POINTS 66
DATA ascii
-9.3614235 -4.9134526 -1.5881985
-9.3811111 -4.5983577 -1.5722537
-9.242547 -1.7008419 -1.2832297
-6.0978379 -2.1850307 -1.1178132
-6.539753 -1.9226004 -1.1261201
2.576092 -6.7117701 -0.92227435
-4.6941071 -1.0327483 -0.92311478
-7.3202147 0.15718974 -0.9837631
-1.8279825 -2.4848251 -0.84060669
-4.4924955 -0.68116605 -0.87088335
-6.5451651 0.87857831 -0.86148345
-6.663187 1.0557165 -0.85834479
-6.2816367 1.2752353 -0.81845307
-7.9062858 2.1368465 -0.85098481
-3.6968162 0.13455832 -0.74569517
-3.7126074 0.32851112 -0.72904766
-5.4976234 1.480886 -0.74291044
-7.3748331 2.7198005 -0.75295639
-7.9436131 3.4073308 -0.72781706
1.504182 -2.818553 -0.64335859
0.72347462 -2.6252184 -0.68446445
-0.15363382 -1.871475 -0.67579103
0.066635892 -1.6674175 -0.63972974
-0.48732963 -0.87162709 -0.61270428
-3.7408235 0.57773042 -0.69986677
-3.5530772 0.52053952 -0.69646651
-6.3180218 3.2880788 -0.62455308
3.4245768 -2.7452073 -0.51234758
1.7217405 -1.8524296 -0.53384674
-3.2688713 2.049274 -0.52629554
-3.0938833 2.0941253 -0.52020621
-2.79842 2.0150127 -0.51156884
-5.1011586 3.7215686 -0.50285417
-5.0723572 3.8454809 -0.50290215
-7.212369 5.3755989 -0.50776541
3.7997935 -2.6525075 -0.47189838
4.3192058 -2.6444201 -0.42430323
4.5248232 -2.659492 -0.41992319
3.3114991 -2.1316717 -0.46439457
5.367373 -2.4160547 -0.34371766
-0.046216756 1.1188574 -0.39779276
1.0670804 1.3667811 -0.30234432
-0.50749123 1.7940497 -0.36593285
-0.19188957 1.7881577 -0.35316524
-0.73632628 1.8453151 -0.38404077
1.4301438 1.8744981 -0.22360165
0.67161304 2.3405085 -0.23693591
-0.099097744 2.516675 -0.26307285
-2.9117279 6.3069391 -0.12747337
7.8980722 -1.6699066 -0.089820988
-2.7331808 7.9825878 0.040370606
-1.1288152 7.5285234 0.10937497
-0.99186385 7.5680752 0.12329531
-0.95583439 7.7012153 0.14564399
8.8776035 2.2428668 0.33511502
3.2672207 7.7531519 0.44373026
2.9621787 7.8238854 0.42779636
8.9116898 4.2880106 0.5102514
9.6915226 4.2268486 0.57114267
8.4217587 5.4956741 0.59795046
8.3049498 5.5576935 0.58752966
-9.8946705 18.916386 0.53786838
-10.941216 19.328968 0.50743884
9.913599 5.3384271 0.67807704
10.010593 5.5243196 0.69890171
9.6733208 6.4152412 0.76907313
