# .PCD v0.7 - Point Cloud Data file format
VERSION 0.7
FIELDS x y z
SIZE 4 4 4
TYPE F F F
COUNT 1 1 1
WIDTH 80
HEIGHT 1
VIEWPOINT 0 0 0 1 0 0 0
POINTS 80
DATA ascii
5.8445678 -8.9294214 -1.7718172
-0.22040486 -7.3226991 -1.6587293
-0.68537688 -7.1130867 -1.6363719
-1.8351331 -6.7937799 -1.6140857
-1.7403696 -6.7714705 -1.6065822
-4.2633777 -6.1258698 -1.5659175
-4.1866822 -6.1820831 -1.5763381
-3.8775959 -6.0864277 -1.564814
-4.9038267 -5.8585525 -1.5472059
-6.0926962 -5.6224136 -1.5360816
-6.6379585 -5.2993345 -1.5045985
-8.6135025 -4.9273777 -1.4845922
-8.6074982 -4.7849755 -1.4549476
0.10380673 -3.1071949 -1.2356879
-0.071573853 -2.7931795 -1.2183061
7.6805763 -2.4667771 -1.1259303
7.4696355 -2.3067636 -1.1074646
-5.4829488 -1.8867433 -1.1612816
-5.1562252 -1.4298224 -1.1191628
6.9030666 -1.8659075 -1.0699916
4.8956432 -1.7584152 -1.0729728
1.7706701 -1.4259052 -1.0538714
6.9355445 -1.4976805 -1.0345997
8.1882648 -1.4092346 -1.0204436
-2.7369378 -1.0224814 -1.0497429
0.75627422 -1.0559639 -1.0352393
0.58449626 -0.91349196 -1.0297755
-3.3561106 -0.46953493 -1.0080702
8.0481682 -1.1248791 -0.99333942
-2.3174415 -0.51046622 -0.99561733
5.6229877 -0.48657972 -0.9528141
-1.6396191 -0.39256001 -0.97805071
-2.9440279 -0.28264561 -0.97226185
-3.6821003 -0.004527092 -0.95445913
4.2852898 0.04539936 -0.90444243
4.4745021 0.040248588 -0.90776467
-6.5515118 0.74121422 -0.90369219
1.4984825 0.3466922 -0.89334714
7.4196458 0.34139907 -0.85767359
1.384694 0.61895847 -0.8669768
1.4571474 0.69611973 -0.84723485
0.70523769 0.78858328 -0.85431242
-3.239265 0.9315567 -0.87053353
-6.2657194 1.4828181 -0.83645618
-1.1353059 1.7493101 -0.77064884
-0.72155535 1.7091773 -0.76296341
7.9698524 1.7752743 -0.71052146
8.3016891 1.8421884 -0.70778668
0.49723214 2.174161 -0.7127912
0.28579554 2.2551951 -0.71025288
1.6960626 2.2622085 -0.71010184
-8.2378082 2.8709004 -0.71576512
1.7657993 2.4898279 -0.67418885
-3.2932067 2.667501 -0.6890555
8.9493551 2.6070349 -0.61783725
-1.6021276 2.8882713 -0.66265881
-4.6744375 3.3657455 -0.62619048
-6.6634011 3.4805965 -0.63837528
-5.6391125 3.6691689 -0.61018586
-5.4637589 3.6496272 -0.60781604
4.7299709 3.4837632 -0.55433279
9.4930515 3.529479 -0.51774365
8.8018742 3.6802168 -0.52177471
-7.5306015 4.0654545 -0.58634728
-3.371814 4.4943881 -0.51786423
-4.2267256 4.5736609 -0.51789826
-3.8771448 4.5592375 -0.51041996
-3.1826177 4.5352669 -0.51758397
-3.7663014 4.6494236 -0.5073145
-3.1679111 4.6888485 -0.50264752
9.9458351 5.4478183 -0.32751268
5.755002 6.0496969 -0.30236804
4.913064 6.4197922 -0.27026322
-2.7843642 6.9802599 -0.26388529
-2.7613492 7.0339127 -0.25314742
-0.82672036 8.4802589 -0.10739662
-6.3319669 9.2464275 -0.072874881
4.3573084 10.13862 0.098914914
2.5302401 10.461952 0.11269099
-8.5197392 16.893829 0.66356951
