# .PCD v0.7 - Point Cloud Data file format
VERSION 0.7
FIELDS x y z
SIZE 4 4 4
TYPE F F F
COUNT 1 1 1
WIDTH 75
HEIGHT 1
VIEWPOINT 0 0 0 1 0 0 0
POINTS 75
DATA ascii
9.8415108 8.8293238 -0.98474377
9.4878845 5.0568209 -0.8470453
8.97194 8.9665165 -0.89679837
8.9237938 2.5644619 -0.73170608
7.7632012 -1.8894802 -0.51114559
8.2400246 -1.8858309 -0.55421412
7.7060175 -1.7361515 -0.51151896
7.3835897 0.45385504 -0.52882504
5.5994539 3.4640441 -0.44022843
5.1682482 6.1829119 -0.4729856
4.9800367 6.3139391 -0.45821613
4.857811 6.4047809 -0.45749736
4.0637264 7.073297 -0.40455219
3.7085896 10.173847 -0.45257571
6.1516223 -2.6542101 -0.34525365
5.8277779 0.30025768 -0.3826614
4.6545057 0.89377081 -0.30308831
5.2723503 1.550392 -0.36477515
3.7516508 7.1672382 -0.36274815
3.5860686 7.3132381 -0.3621875
2.0260181 10.468786 -0.29512739
3.5092332 -2.1386817 -0.10462622
3.6475496 -1.8532393 -0.12852418
4.136734 -1.4379542 -0.1840879
3.3014736 1.7113795 -0.17827953
2.8444352 1.9053488 -0.14549808
0.71430981 10.779472 -0.17025913
3.3033173 -4.9216146 -0.026924413
2.9072471 -2.0636582 -0.056323741
3.0485306 -1.8184556 -0.066466935
2.1342306 -1.8926964 0.021608327
1.620266 -1.6338589 0.057813015
1.3555589 0.34996569 0.022731658
1.2242975 0.4849427 0.038725853
1.4049443 0.70389509 0.0089489138
0.89476609 2.1800258 0.027355812
0.54289073 -1.4498987 0.14580253
0.87170112 -1.0839919 0.11575659
-1.7662771 7.96981 0.13066486
-0.66745585 -1.563723 0.26291794
-1.6325631 2.9244304 0.240904
-2.8405046 6.6663818 0.250687
-3.012444 7.5029745 0.25199342
-1.067425 -1.3445464 0.30344668
-1.6686783 -1.0593119 0.34030485
-3.474617 5.0123682 0.36072305
-3.1505537 5.3437057 0.32948673
-3.3089721 6.3492913 0.31791413
-3.7822251 7.2424545 0.33536848
-4.8285332 8.6654987 0.38515985
-3.178772 -0.76777375 0.47725075
-3.6823387 0.63684833 0.49690288
-3.7072313 -1.0629237 0.5309124
-4.1753225 -0.51896888 0.56719434
-4.0437026 0.07283061 0.5472858
-3.9565473 0.15132976 0.52714586
-4.0269732 0.3026036 0.53725505
-3.7013826 0.51767886 0.50585121
-3.9144139 0.77664971 0.50611031
-6.4733577 8.2868423 0.56011248
-6.4464002 9.2734566 0.52433062
-9.5715075 18.013462 0.59733111
-9.2413473 18.887905 0.53665775
-5.2524371 -0.63616246 0.66465759
-5.5354633 -0.55047762 0.69740915
-6.2332883 3.6104202 0.65785277
-7.084053 6.7847528 0.65072078
-7.3312235 6.910243 0.6733675
-6.2408843 -0.43730766 0.75955379
-5.8575249 -0.47096059 0.72519076
-7.182498 5.3592749 0.70116156
-7.5352449 6.1748533 0.71193272
-7.6839156 -0.082014054 0.88680887
-8.2256165 2.6914065 0.8695817
-8.3996735 0.068876803 0.95341682
