# .PCD v0.7 - Point Cloud Data file format
VERSION 0.7
FIELDS x y z
SIZE 4 4 4
TYPE F F F
COUNT 1 1 1
WIDTH 103
HEIGHT 1
VIEWPOINT 0 0 0 1 0 0 0
POINTS 103
DATA ascii
7.7729588 21.706272 -0.13319616
-6.5032158 12.210205 0.41238573
-3.8262515 9.1452084 0.69019145
-5.0586581 9.4174337 0.64800739
-7.1564674 7.847126 0.73739129
-3.7910349 8.4344845 0.74193674
-7.6471596 5.8342915 0.89956939
-7.4926653 6.1436806 0.8699699
-7.4712787 6.5983682 0.83030266
-0.96139061 6.9813037 0.88999361
-1.3529598 7.0204039 0.88456517
-2.1524587 7.4547691 0.85132146
-1.4072337 7.4771247 0.85061312
-1.9838285 7.8285198 0.80734068
-6.8094301 4.8063278 0.98283249
-4.8415556 5.0936699 0.99572152
-6.6950817 5.1996207 0.9550069
-5.2736468 5.3762412 0.96409297
-6.9205284 5.5382018 0.92546046
-6.1584563 5.8084531 0.91141021
-0.17922294 6.1990757 0.97332275
3.3732719 6.570878 0.99746251
-4.3654466 3.981627 1.0909446
-3.0266185 4.0901852 1.0939512
-3.0407908 4.2286129 1.090591
-1.5369461 4.4895544 1.0776248
-2.2373917 4.595727 1.0668694
-2.2747664 4.6652274 1.0630076
-3.4542854 5.0065422 1.0149252
0.66738749 5.4784565 1.031635
2.443778 5.4514494 1.0586685
1.2002869 5.5983868 1.0440413
1.2051327 5.6144381 1.042753
1.8495798 5.7072129 1.0331364
2.2122476 5.7778034 1.034049
2.5174453 5.7500615 1.0337502
2.3042855 5.8518739 1.0338322
1.3774017 6.0989676 1.007279
4.280117 6.272543 1.0178838
0.44775081 3.4508009 1.196588
-0.92545891 3.5653729 1.163317
0.28777647 3.5128436 1.1849728
0.95321321 3.6088591 1.1770364
-3.1672277 3.7524343 1.1093674
0.70845258 3.7366784 1.1720419
-3.1163349 3.899591 1.1081933
0.53596723 3.8847482 1.1591318
0.88111985 3.9166851 1.1573952
-1.7364691 4.0981312 1.1049793
2.9009438 4.4173956 1.150373
3.0790877 4.5684023 1.1384218
3.1657538 4.7883587 1.1234031
5.3464689 5.34516 1.1211078
7.9156699 5.5332098 1.131999
-8.6461411 0.74448842 1.2766697
3.8980412 2.6818323 1.2929367
3.7799311 3.2917681 1.2597024
7.4883289 3.3328209 1.2932065
7.4497657 3.5386195 1.2758915
3.7343178 3.763514 1.2177706
8.7815075 4.2512708 1.2353797
9.0795736 4.6825056 1.210611
-8.1896477 -0.074163109 1.3514879
3.7672021 2.5575447 1.3092891
6.1336923 3.0490222 1.3079262
-5.0414963 -0.67048103 1.4469647
-1.7203782 -0.69217294 1.4820285
-5.104744 -0.39566991 1.408905
9.0590086 1.2733314 1.4753685
8.8425131 2.0665624 1.4216429
8.4934731 2.1250155 1.4025472
-1.0057925 -1.2757437 1.5500426
5.1876807 0.15524837 1.5226997
5.4072309 0.36509606 1.5068411
8.9057484 0.66574776 1.5320504
0.96831727 -7.8316708 2.0767519
2.3062973 -7.6152287 2.0826733
3.6710277 -7.3941479 2.0969062
2.2955794 -7.1428404 2.0526948
2.2651415 -8.9562073 2.1839359
3.3866394 -8.7189245 2.1841686
1.4319408 -8.211216 2.1228728
3.2805409 -8.2691021 2.1421595
2.9102111 -7.9779115 2.1175675
2.6154943 -7.7543297 2.1061046
3.3356242 -7.7761602 2.1038218
7.1823173 -7.5309844 2.157239
2.1964698 -10.314111 2.2998359
1.8254914 -10.082818 2.2761707
2.9495287 -9.7595911 2.2562132
-0.057577133 -9.4214821 2.2051654
0.191888 -9.4646101 2.2044795
1.7987233 -9.4205608 2.2157521
2.6625237 -9.4582787 2.2452481
2.3065031 -9.3102131 2.2254815
1.9331926 -9.1792707 2.2048542
3.1766856 -9.0384293 2.204699
2.8930807 -11.279434 2.383914
-0.47326756 -11.12516 2.3195806
1.8962486 -10.510499 2.3070252
2.1511846 -10.583102 2.3111479
2.5653803 -12.180569 2.4585488
2.9228821 -11.578204 2.4057088
