# .PCD v0.7 - Point Cloud Data file format
VERSION 0.7
FIELDS x y z
SIZE 4 4 4
TYPE F F F
COUNT 1 1 1
WIDTH 107
HEIGHT 1
VIEWPOINT 0 0 0 1 0 0 0
POINTS 107
DATA ascii
-7.6010256 -5.2512236 -1.53827
-5.8600564 -5.3903322 -1.4164525
-6.5932074 -5.2094307 -1.4563863
-7.0799956 -5.1691403 -1.4841238
-4.2576814 -5.7744532 -1.3542521
-5.2346601 -5.4576597 -1.3773621
-8.5608826 -2.2029574 -1.2700253
-5.4472604 -2.7035108 -1.1011481
-5.9436021 -2.489603 -1.1043489
-5.0282068 -1.7532188 -0.96741009
-6.7295537 -0.23518753 -0.919927
-4.6236005 -1.2519876 -0.86789811
-8.4180031 1.6187313 -0.82906866
-1.7346604 -2.5528784 -0.79973948
-6.2815738 1.1425185 -0.72672963
-7.6985846 2.1393197 -0.71779084
0.34008861 -2.2577817 -0.61949009
0.057060957 -2.0543473 -0.60938591
-1.7336845 -0.81372499 -0.61590493
-3.5476642 -0.098088726 -0.66610181
-3.8011665 0.2400642 -0.63773584
-3.5669968 0.27776206 -0.62335271
-6.1945782 1.5569289 -0.68432653
-8.2291584 2.6512346 -0.69737661
-7.8076506 2.7758942 -0.67117608
-8.1152258 2.8829792 -0.66395175
1.5824847 -2.5636666 -0.56708723
1.0392724 -2.4195852 -0.58400589
0.51595849 -2.2480173 -0.59982157
0.93778902 -2.2706261 -0.57506305
1.3932145 -2.2472248 -0.53178918
1.5452988 -2.2726023 -0.52898133
1.517063 -2.10535 -0.5160768
-0.50622338 -0.91379035 -0.53828096
-3.5275602 1.0501025 -0.53545904
-8.0285282 3.6592622 -0.57678938
-7.060709 3.715106 -0.50639737
3.0703866 -2.4844944 -0.44523954
2.5028753 -2.2188609 -0.45681635
2.2348971 -2.1165903 -0.45327741
1.3501992 -1.4579215 -0.44921845
-3.3042374 1.5669875 -0.46943086
4.2575445 -2.4905391 -0.35487553
4.071414 -2.3663225 -0.35863698
3.2496421 -2.0704772 -0.37270555
3.5308251 -1.6538014 -0.3185437
6.6111245 -2.9146435 -0.22163676
4.5521269 -1.7829897 -0.26256868
1.0911589 0.37213928 -0.26401794
-7.0352955 6.23985 -0.22757874
8.1806059 -3.0022392 -0.12597713
8.2433271 -2.8728008 -0.10433937
0.67181176 1.3271766 -0.1948964
0.28254634 1.5711815 -0.18885233
0.54389012 1.5419306 -0.18360394
0.068819039 1.6451201 -0.19540751
0.26404619 1.6803252 -0.18916039
0.50065506 1.630074 -0.18340549
0.12801188 2.4829524 -0.10269412
-0.66933095 2.5617728 -0.16531062
-6.9539232 6.4361525 -0.19075823
8.2879515 -2.6622195 -0.074595399
0.54983234 2.3766279 -0.090890869
0.86266619 2.3116713 -0.064190269
-6.8416772 7.2456818 -0.08970163
8.3012047 -1.4220366 0.070564821
4.1592116 1.6820738 0.096047357
-2.9760845 5.7670374 0.02506832
-2.8613939 6.2167101 0.086362362
-6.5491829 8.6140251 0.089074038
8.6796093 -0.90197498 0.14258999
7.8254151 -0.28106776 0.14602819
7.5815668 -0.16348489 0.15474255
4.9731731 1.7879846 0.18221456
5.3695951 1.7277918 0.19349885
4.8965273 1.8415248 0.17795837
-2.7805066 6.6633949 0.1367335
8.1429224 0.14383957 0.21749425
5.6896963 1.6479985 0.21848929
5.8529291 1.6240391 0.22031841
5.3309078 1.7314925 0.20258342
-3.0193594 8.0191517 0.27486691
-6.6687894 10.073912 0.23485224
-1.7654672 7.843441 0.34959656
8.7969427 2.0599132 0.47880787
-0.83743668 8.5082197 0.48316672
9.0219545 2.9039328 0.59490341
5.0079355 5.254663 0.57059443
8.9771061 3.2817025 0.62802488
8.6524124 3.337815 0.62024432
5.0037928 5.780632 0.62797803
4.0545793 6.5458736 0.63597989
1.6773481 8.0679989 0.61921608
8.0997009 4.5365725 0.7112996
8.0686169 4.6509533 0.72462738
6.0825281 6.1551304 0.74592698
5.4307156 6.2985325 0.71780312
-9.8297977 17.006916 0.76552093
-10.06109 17.159151 0.76650858
9.7909832 4.8089972 0.85979027
6.6176853 7.0702009 0.87916112
9.8630638 5.1047049 0.9057194
9.9651823 5.7078323 0.98573172
8.8853989 6.6115112 0.99014676
7.8457804 6.8302679 0.93847907
9.9723454 6.2745752 1.0415491
9.3250599 6.4962287 1.025231
