# .PCD v0.7 - Point Cloud Data file format
VERSION 0.7
FIELDS x y z
SIZE 4 4 4
TYPE F F F
COUNT 1 1 1
WIDTH 69
HEIGHT 1
VIEWPOINT 0 0 0 1 0 0 0
POINTS 69
DATA ascii
-5.471848 -5.2248774 -1.2079293
-7.3132501 -4.669241 -1.2456763
-3.856194 -5.6610718 -1.1913018
-0.65158653 -3.7092674 -1.0088887
-1.0529902 -3.6777334 -1.0367486
-2.9258041 -2.9657609 -1.0445302
-7.2348032 -0.014223188 -1.0464833
-6.9852743 0.76570576 -1.0042589
2.352334 -4.5429192 -0.96505708
2.1120968 -4.3599339 -0.96040493
0.24541628 -2.1766276 -0.93426931
-1.326683 -1.9009788 -0.94868296
-3.53597 -1.2943118 -0.99894685
-1.4807909 -0.6180861 -0.90589046
-2.719255 -0.24999028 -0.92815304
-3.9457498 -0.10454819 -0.95278692
-4.1501865 0.18864284 -0.95732045
-3.8704619 0.33354789 -0.93745041
-5.1237774 1.4770263 -0.91618848
2.5651796 -1.6558373 -0.84010303
1.0311147 -1.4325166 -0.86881858
3.0298095 -1.4729419 -0.81763476
1.2820827 -1.3672026 -0.86644018
2.7341719 -1.3505419 -0.81590527
3.0044212 -1.3611627 -0.80756587
1.1168315 -1.270633 -0.86908269
-3.1593986 0.72916973 -0.89739484
-2.2187691 1.750457 -0.82033753
-1.7037753 1.7731209 -0.81021059
-6.5173531 3.4088988 -0.87177533
-5.7533436 3.6700637 -0.83736765
7.6880236 -2.2185483 -0.72516143
5.4905567 -2.0935435 -0.76620322
5.9226131 -1.9963996 -0.75052583
7.1533003 -1.7401078 -0.70954698
7.1104002 -1.4941189 -0.71446359
4.6971598 -0.45793569 -0.7229594
4.6858268 -0.27847463 -0.72550124
2.2894719 1.2667053 -0.72498381
2.8558207 1.331291 -0.70372701
3.1108243 1.3180665 -0.70112759
1.6092381 1.4606616 -0.7377187
2.8460031 1.4366527 -0.70070958
-0.35570189 1.846038 -0.77046955
-2.6399379 3.0988207 -0.78137457
8.6159573 -1.4198728 -0.65646237
8.5268536 -1.3258395 -0.65643811
8.4619331 -0.89208943 -0.6366142
7.5146389 -0.23469222 -0.63107234
7.5185962 -0.13877216 -0.63373494
6.5818338 0.44351876 -0.64350498
5.9145608 1.538514 -0.60435933
-2.959024 6.0719686 -0.6727351
-6.6818814 7.9179416 -0.69547647
-6.5932636 8.4390278 -0.6701057
-6.6993103 8.9656725 -0.64155489
5.0011621 3.7609491 -0.54597098
5.7543125 3.7331123 -0.51088178
-1.4589889 7.6834364 -0.55063993
-0.8938629 7.7631168 -0.54259408
0.12408209 7.8183208 -0.50438446
-3.6238937 7.9394894 -0.59913737
4.4197969 6.5080233 -0.42985499
3.7891216 7.1586823 -0.43835074
8.4725723 6.5813017 -0.32813773
7.6825476 9.3839264 -0.22656181
-12.398819 21.532003 -0.26674175
12.167043 8.3289433 -0.13914433
-12.093536 23.093384 -0.1894187
