# .PCD v0.7 - Point Cloud Data file format
VERSION 0.7
FIELDS x y z
SIZE 4 4 4
TYPE F F F
COUNT 1 1 1
WIDTH 1440
HEIGHT 1
VIEWPOINT 0 0 0 1 0 0 0
POINTS 1440
DATA ascii
-4.3962975 -4.4397769 -1.0535411
-4.3711534 -4.4139204 -1.047254
-4.4808168 -4.2632146 -1.0433661
-5.4319949 -2.5979486 -1.0434142
-4.9341087 -1.6318308 -1.110562
-6.809588 -2.1717038 -1.0092291
-5.0206676 -1.5787591 -1.1278402
-5.0505233 -1.490433 -1.1315753
-4.8605442 -1.4347277 -1.087114
-5.1419501 -1.3540628 -1.1484932
-5.1123252 -1.410936 -1.1432114
-5.1575212 -1.30948 -1.1510559
-5.1566219 -1.2608278 -1.1498889
-5.9783301 -1.4546887 -1.1055502
-5.8439622 -1.3856764 -1.0793858
-4.9899225 -1.1894066 -1.1105613
-0.54092658 -11.00887 -0.7886436
-0.73438412 -10.866733 -0.77255595
-1.0570002 -10.756864 -0.75614804
-0.95762056 -10.749126 -0.75799251
-0.85782516 -10.72961 -0.75906682
-1.1231234 -10.759158 -0.75477201
-0.7878378 -10.65599 -0.7554276
5.9147968 -8.3062887 -1.0380875
4.4892254 -6.9552307 -1.1312505
4.5367241 -6.9346881 -1.1352532
4.5425887 -6.8534403 -1.1291013
4.6324558 -6.8055811 -1.1361502
4.6734681 -6.7759686 -1.1387888
4.5351763 -6.7545071 -1.1198847
4.6933727 -6.7172399 -1.1364411
4.7180171 -6.6657038 -1.1353257
4.7484331 -6.5807834 -1.132301
4.7886705 -6.5100141 -1.1317623
4.831265 -6.4433413 -1.1319714
4.8802528 -6.345861 -1.1307189
4.9376597 -6.2603836 -1.1316904
4.9792309 -6.1952415 -1.1322601
4.9871445 -6.1287127 -1.1283098
5.0175776 -6.0894146 -1.1294737
5.0490179 -6.0514674 -1.1309204
5.075356 -5.9712119 -1.1286339
5.1416202 -5.900517 -1.132646
5.1961327 -5.8528156 -1.1368164
5.1982641 -5.7842798 -1.1322979
5.2203231 -5.703002 -1.1297582
5.266839 -5.6481733 -1.1325846
3.8561256 -5.4497108 -1.1795368
3.7715712 -5.403594 -1.1618137
3.8799777 -5.4130559 -1.1790599
3.9350982 -5.3503685 -1.1805527
4.0022769 -5.3034258 -1.1857554
4.0313687 -5.2417521 -1.183681
4.0585756 -5.178432 -1.181235
4.0855269 -5.1157947 -1.1789405
4.1412163 -5.0568004 -1.1817156
3.4010992 -5.2552166 -1.0909522
3.4772253 -5.1962552 -1.0951997
3.5454543 -5.1593885 -1.1010177
4.1611195 -4.9875617 -1.1778569
4.2012792 -4.9422674 -1.1798109
4.2390919 -4.8649406 -1.1783184
4.2667146 -4.8067932 -1.1771809
4.2918539 -4.7467713 -1.1755667
4.315021 -4.6852441 -1.1735719
4.336309 -4.6226478 -1.1712755
4.4428496 -4.4264541 -1.1716691
2.9422128 -4.6308179 -1.1650211
3.3667841 -4.4058986 -1.2064451
3.4368551 -4.3833704 -1.2161458
3.4910748 -4.3145795 -1.2169905
-7.14325 -7.550704 -0.63163042
3.5098388 -4.257782 -1.2130524
3.5500355 -4.2005358 -1.2132351
-7.2260637 -7.5013919 -0.63342154
3.581022 -4.1335707 -1.2105919
3.6212096 -4.0776091 -1.211321
-7.2739105 -7.4154143 -0.63209909
3.6652339 -4.0260253 -1.2134954
3.6960244 -3.9852345 -1.2145776
-7.3166523 -7.3695717 -0.6322754
3.7033491 -3.897372 -1.2054927
3.768683 -3.8217294 -1.2097284
3.9090571 -3.6128774 -1.2151752
3.9503179 -3.5613005 -1.2183096
3.9290733 -3.4999766 -1.2073598
4.0449953 -3.3833692 -1.2202847
3.1045821 -3.5860779 -1.2417415
3.9209094 -3.3253872 -1.1877011
4.0397625 -3.3375235 -1.2146239
3.1544712 -3.510987 -1.2413789
4.029048 -3.247201 -1.2035363
3.2256765 -3.4164851 -1.243346
3.287854 -3.33495 -1.2458978
3.3190103 -3.2646904 -1.2432599
3.3543549 -3.2186878 -1.2452735
3.3802798 -3.1644604 -1.2440906
3.4350946 -3.116698 -1.250981
3.4464402 -3.0322447 -1.2427824
3.4893005 -2.9750342 -1.2461377
3.5375416 -2.9220524 -1.2515897
3.558069 -2.8479478 -1.2479085
3.6003892 -2.7907677 -1.2519653
3.5981803 -2.7193565 -1.2433236
3.5957031 -2.6319792 -1.2330397
3.5346651 -2.540035 -1.2072742
3.6719594 -2.3684926 -1.2262778
3.7095923 -2.3430445 -1.2339981
3.7487526 -2.3181269 -1.2422711
3.780643 -2.2885733 -1.248271
-4.84865 -4.618638 -0.88508689
-4.8298626 -4.5453196 -0.87653387
-4.6936193 -4.5222015 -0.86029613
-4.789506 -4.4526372 -0.86403608
-4.0496006 -3.9613276 -0.9518199
-3.2910538 -3.3968267 -0.96685773
-3.3186688 -3.3254645 -0.96028972
-3.317997 -3.2461929 -0.94841087
-3.6890659 -2.8276563 -0.95399892
-3.8024049 -2.7585378 -0.96626103
-3.7278724 -2.7373896 -0.95013517
-3.8940516 -2.7053146 -0.97699803
-9.6983995 -3.9359939 -0.70753533
-9.7450104 -3.8867736 -0.71100342
-5.0116186 -2.3589633 -0.95716429
-9.793232 -3.837857 -0.71463859
-9.8077059 -3.7755718 -0.71576202
-5.0035448 -2.2831783 -0.95172429
-9.8395014 -3.7199619 -0.71824372
-5.0505719 -2.1973186 -0.95569813
-9.9005899 -3.6412261 -0.72307324
-5.1184764 -2.1197882 -0.96418118
-9.9573746 -3.5603757 -0.727669
-5.1561093 -2.064384 -0.96852177
-6.4311714 -2.009078 -0.95041353
-6.3699541 -1.948468 -0.94046485
-6.4464092 -1.8882036 -0.95127869
-6.3888164 -1.9127328 -0.94287574
-6.5648136 -1.8804116 -0.96905565
-6.5165834 -1.8247566 -0.96130228
-6.4249649 -1.7580649 -0.94694769
-6.334691 -1.6930641 -0.93285471
-6.2160983 -1.6220304 -0.91447353
-5.5432086 -1.2805161 -1.0213109
-4.7027779 -1.0926161 -1.0433278
-4.5645823 -1.0186886 -1.0106221
5.8598948 -8.0759401 -1.0205195
5.9435687 -8.0339098 -1.0271653
6.0708852 -8.0476999 -1.041314
-0.62596297 -10.000349 -0.71103495
-0.56529379 -10.00597 -0.71317756
6.1773281 -7.8835225 -1.0446374
6.2117319 -7.828269 -1.0456927
6.2866812 -7.7741337 -1.0512763
5.9492087 -7.7927184 -1.015716
6.3402414 -7.6475 -1.0512246
6.4182606 -7.5974193 -1.057557
-0.43252924 -9.6442776 -0.69012666
-0.34491423 -9.6592464 -0.69394243
5.8494444 -7.5706658 -0.99412596
6.2428069 -7.3052926 -1.0247232
2.3912499 -6.8083839 -0.89572841
5.2731986 -5.5527287 -1.1270558
5.3238449 -5.5030985 -1.1310258
5.3554568 -5.4678864 -1.1332819
5.3868437 -5.4324908 -1.1355387
5.4103527 -5.2922688 -1.1300424
5.3018394 -5.28514 -1.1136712
5.4020858 -5.1888976 -1.1223679
5.3733954 -5.0998335 -1.1126308
5.4713979 -5.1267519 -1.1288786
5.5136366 -4.858417 -1.1195103
3.2977877 -5.2043443 -1.0703413
4.193109 -4.3957367 -1.1257793
4.0273347 -4.1785793 -1.0774051
4.0632768 -4.1383519 -1.0799487
4.0282159 -3.9818897 -1.0598828
3.5782132 -3.487087 -1.1327708
3.6181111 -3.4394727 -1.13569
-7.64223 -6.9043078 -0.63083643
3.7660301 -3.3207674 -1.1540622
3.8203216 -3.3047485 -1.1640092
-7.7134318 -6.8015227 -0.63097131
-7.6765242 -6.8516679 -0.63076687
4.0047259 -3.1484964 -1.1888169
4.0340939 -3.0914142 -1.1900585
3.8154495 -2.8583574 -1.1202055
-5.3685083 -5.6453924 -0.75000995
-8.0305328 -6.3415732 -0.63368535
-5.422452 -5.566824 -0.74849194
-8.0781822 -6.3006649 -0.63524193
-5.4761481 -5.4885535 -0.74712276
-8.1348743 -6.1886225 -0.63532197
-8.2018461 -6.1234732 -0.63750148
-5.2785807 -5.223578 -0.7145803
3.5470676 -2.4506209 -1.2012361
-8.2773495 -6.0260119 -0.63942987
-5.2289057 -5.1114345 -0.7033903
3.5809205 -2.3445139 -1.1996176
-8.3305159 -5.9503431 -0.64070696
-5.7419405 -5.1033292 -0.7431742
-5.7066531 -5.1333652 -0.74215186
-5.5572677 -5.0577536 -0.72552854
-5.3261676 -4.9625735 -0.70127684
-8.38412 -5.8750148 -0.64213061
-5.7759089 -5.0413232 -0.74223107
-5.3835931 -4.9567075 -0.70543504
3.5762179 -2.1265855 -1.1783696
-8.4761372 -5.751266 -0.6449219
-8.437108 -5.7992458 -0.64359355
-5.8197327 -4.9578943 -0.74095261
-8.4859447 -5.683475 -0.64397895
-8.5578909 -5.6204958 -0.64718652
-8.6410255 -5.4907684 -0.64982849
-8.6110382 -5.5447788 -0.64899302
-8.6689777 -5.4355302 -0.65055037
-6.1464062 -4.5173011 -0.74569345
-6.2051806 -4.4471736 -0.74764222
-6.2774725 -4.3585138 -0.75016034
-6.2511468 -4.3958702 -0.7494458
-6.3244276 -4.2799034 -0.75102621
-2.8643177 -3.1434758 -0.86473036
-6.3831048 -4.1818304 -0.75233108
-2.8797526 -3.123265 -0.86376655
-6.4445877 -4.1129184 -0.75536466
-6.4918518 -4.0346222 -0.75682056
-3.1832852 -2.9304819 -0.88149571
-3.1259549 -2.9632792 -0.87703449
-6.5507698 -3.9367425 -0.75887632
-3.2951288 -2.894639 -0.89483225
-3.2182043 -2.9110262 -0.88443369
-6.6185703 -3.8440807 -0.76225281
-3.4431913 -2.8343558 -0.91182232
-3.3566546 -2.8630528 -0.90084839
-6.6849985 -3.7502484 -0.76572537
-6.6520438 -3.784169 -0.76353836
-3.5384393 -2.810771 -0.92530012
-6.7360735 -3.6737339 -0.76846051
-3.7228215 -2.6998575 -0.94483161
-6.7981396 -3.5768542 -0.77187705
-3.7458541 -2.6832569 -0.94712842
-6.844451 -3.4973984 -0.77441144
4.0714087 -0.10482623 -1.2770131
-6.9076014 -3.4004989 -0.77843177
-6.877368 -3.4368114 -0.77620482
-6.9632311 -3.325058 -0.78245169
-7.0308075 -3.2292697 -0.78745282
-7.0855074 -3.1270406 -0.79121649
-7.0676289 -3.1697712 -0.79014277
-6.8442717 -2.9713013 -0.76222003
-4.7903109 -1.5809668 -0.88490999
-4.7088985 -1.6003827 -0.87045145
-7.1208649 -2.2654214 -0.78511298
-7.044889 -2.1950302 -0.77624184
-6.1467485 -1.5651038 -0.9036926
-6.0807805 -1.5100272 -0.8934772
-5.9316521 -1.4359773 -0.87056357
5.9086614 -6.8411427 -0.96642244
6.0852523 -6.6227727 -0.97698504
-1.1311642 -8.7870741 -0.60861897
5.8424482 -6.6439681 -0.95021796
6.1279106 -6.5871654 -0.98040307
6.163444 -6.544148 -0.98272896
-1.0440919 -8.7286816 -0.60612988
-0.98677921 -8.6902418 -0.60454208
5.8915877 -6.5365639 -0.95112771
2.2928398 -6.6684537 -0.87278795
2.1743457 -6.4669027 -0.84183472
2.0620427 -6.2744312 -0.81238854
3.7169414 -3.6438076 -0.97561622
4.2018304 -3.449883 -1.0478836
4.2362928 -3.4338024 -1.053135
3.698878 -3.5832896 -0.9671768
4.1142526 -3.4235575 -1.0295926
4.2742305 -3.3986981 -1.0577053
4.3049574 -3.3159194 -1.0576293
3.8594084 -3.4050839 -0.98120886
3.9481711 -3.3741398 -0.99507129
4.1607242 -3.2507021 -1.0256515
2.0551441 -3.8928423 -0.91328573
-5.2298498 -5.0510182 -0.69949579
-5.2652931 -4.994565 -0.69857299
3.1553905 -2.1099939 -1.0632969
3.3047411 -1.9059601 -1.0852718
3.3458695 -1.8595192 -1.0928705
-2.4011064 -3.4808226 -0.86242086
-2.1225746 -3.3777344 -0.81318665
-2.0409164 -3.3532703 -0.8002584
-4.0216494 -3.908361 -0.73510253
-2.1494553 -3.2656415 -0.79512614
-2.273082 -3.2023919 -0.79748899
-2.1860783 -3.21646 -0.79010421
-2.3053257 -3.1680048 -0.79512656
-3.4445858 -3.2177994 -0.78570503
-3.4966166 -3.2288425 -0.79386795
-3.4878585 -3.1632447 -0.7852335
-3.4822133 -3.0647507 -0.77346379
-3.5198765 -2.952709 -0.76653755
-3.4474487 -2.9611406 -0.75732315
-3.604116 -2.8996599 -0.7729764
-3.6667457 -2.8103244 -0.77311713
-3.7919502 -2.7336354 -0.78449565
-3.7293727 -2.7725821 -0.77872348
-3.8881457 -2.6667247 -0.79315698
-3.8518207 -2.6919589 -0.78979856
3.7800741 -0.052332032 -1.1896946
-6.6422176 -2.8127203 -0.73747993
-6.6365666 -2.717355 -0.73529947
-6.6328011 -2.5552008 -0.73261094
-6.5899811 -2.6294444 -0.72887796
-6.475019 -2.5387275 -0.71496934
-6.6650252 -2.4993165 -0.73553073
-6.704648 -2.3556547 -0.7385776
-6.657238 -2.4061978 -0.73370945
-6.7549052 -2.305541 -0.74386907
-6.9416943 -2.1175442 -0.76428926
-6.4747453 -1.9123248 -0.71059597
-6.5097857 -1.8175937 -0.7146976
-6.4176836 -1.7508414 -0.70421648
-1.2192607 -11.21382 -0.37863547
5.7326789 -6.0266209 -0.91141891
5.4668808 -5.6866064 -0.86660463
5.4058967 -5.5574098 -0.85428315
1.9720175 -6.138001 -0.79065347
1.9128222 -6.0861835 -0.78029823
1.82201 -5.9369049 -0.75724459
4.3337259 -4.0477138 -0.89369023
4.5778036 -4.012754 -0.92867446
4.3263597 -3.968075 -0.88787037
4.3644443 -3.7866504 -0.88331854
3.69835 -3.5182235 -0.96150833
3.7161319 -3.4704261 -0.96064097
3.7698779 -3.4333498 -0.96724582
-5.3527875 -5.7008619 -0.4687981
1.8022093 -3.4988008 -0.81382066
1.8530418 -3.4660783 -0.81635708
1.6199119 -3.2162688 -0.88598341
1.6693922 -3.1915233 -0.88965869
1.5762206 -3.2053473 -0.87660021
-3.3643312 -3.7599852 -0.65678835
-3.6656506 -3.7290125 -0.68250299
-3.3486409 -3.6523969 -0.64448053
-3.6855354 -3.6828587 -0.68011469
-3.3967247 -3.5532401 -0.63929176
-3.3194399 -3.5761311 -0.63412857
2.8842325 -1.549495 -0.94057012
-2.2406807 -3.0948024 -0.77447271
2.8784323 -1.5235515 -0.93702894
-3.0507703 -3.2391315 -0.73842603
-2.8058841 -3.1169336 -0.69364595
-2.2375228 -2.9933901 -0.75611007
-2.8431406 -3.0845275 -0.69385803
-2.2470899 -2.8959661 -0.74034834
-2.4796088 -2.8569133 -0.76444906
-2.4184599 -2.8344908 -0.75238484
-2.3293827 -2.8270533 -0.73922664
3.1524365 -0.21478145 -0.9902004
3.1843414 -0.1648349 -1.0017459
3.2124324 -0.12433754 -1.0119301
-7.3912702 -2.592236 -0.53324223
-7.5603127 -2.6007891 -0.54629242
-7.5369205 -2.5423324 -0.54477507
-4.7982879 -1.5780132 -0.70048404
-6.3144417 -1.6824805 -0.69248915
-6.1748023 -1.5866444 -0.67671049
-6.0919418 -1.50762 -0.66751826
-5.9952364 -1.4461061 -0.65666044
-3.5646722 -0.34129968 -0.78043056
-3.5403512 -0.33913115 -0.7747854
-3.5041058 -0.28477922 -0.76757604
-0.12347685 -10.979633 -0.40226758
-0.59265447 -10.999918 -0.38803679
-0.18973941 -10.843725 -0.39484727
-0.28808728 -10.791944 -0.38963813
-0.64892101 -10.770437 -0.37758332
-0.70853168 -10.655441 -0.37143487
-1.1074972 -10.739393 -0.36355329
-1.0361204 -10.674327 -0.36297655
-0.9673636 -10.631708 -0.36321479
-0.89909041 -10.58765 -0.36341733
-0.76853746 -10.570049 -0.36643666
-0.41082561 -10.452858 -0.37273812
6.5223794 -8.2753363 -0.71389902
-0.83204329 -10.553124 -0.36398095
-0.50519824 -10.419153 -0.3685087
-1.1932139 -10.288486 -0.34425265
6.3852291 -7.9072661 -0.69492155
6.4362836 -7.8708019 -0.69859409
-1.2513008 -10.240199 -0.34097117
6.259325 -7.852375 -0.68309468
6.4767909 -7.8218532 -0.70115167
-1.3071226 -10.176687 -0.33720165
6.3508744 -7.5800271 -0.68573654
6.4688616 -7.6226339 -0.69677097
2.4589736 -6.8792233 -0.63732696
2.3233218 -6.7059941 -0.61549193
2.2234702 -6.5581985 -0.59809935
2.9346981 -4.6975865 -0.75110108
-7.2264352 -7.5021501 -0.26021791
-7.3160872 -7.4137845 -0.26086992
-7.3365808 -7.3004723 -0.25964242
4.1069093 -3.7068241 -0.83943939
4.1190381 -3.4527757 -0.82722473
4.1714029 -3.4515362 -0.83532226
4.0109262 -3.4505734 -0.8103497
4.0322485 -3.4255204 -0.81228751
4.1940055 -3.383992 -0.83538491
4.2597284 -3.3494694 -0.84402198
-7.68116 -6.8960705 -0.26291382
-7.7261744 -6.8109736 -0.2631402
1.9861398 -3.7548454 -0.71776849
-7.7859774 -6.7394013 -0.26399338
-7.8725734 -6.6090832 -0.26508319
-7.8338184 -6.6575727 -0.26447105
-7.9400873 -6.5442038 -0.26640391
-5.313477 -5.7274203 -0.46816045
-7.9970603 -6.4704852 -0.26740301
-5.1652455 -5.632761 -0.45727319
-5.0057712 -5.5223317 -0.4452126
-8.041172 -6.3865209 -0.26801592
-4.6796894 -5.2827096 -0.42002547
1.7941117 -3.2741153 -0.77769363
-8.0947132 -6.3103547 -0.26903236
-8.1374054 -6.1869802 -0.26947445
-8.2390919 -6.1090274 -0.27215213
-8.1970997 -6.1548438 -0.27111506
-5.1971292 -5.1440701 -0.43799692
-8.2886734 -6.0302601 -0.27329069
-5.235723 -5.0898137 -0.43773544
3.889719 -2.1804154 -0.90878147
3.9537325 -2.1504033 -0.92060691
-8.3440371 -5.9558482 -0.27469718
-5.2751412 -4.975831 -0.43527794
1.5013251 -2.8210247 -0.79065859
3.7745636 -2.1814976 -0.88523841
-8.4099379 -5.8509965 -0.27640373
-8.3816338 -5.9067001 -0.27569991
-5.3938231 -4.9379392 -0.43998367
1.3603427 -2.8490391 -0.77216035
-8.4447937 -5.7251043 -0.27713501
-8.4033566 -5.7712574 -0.27590305
2.9412227 -2.1809988 -0.86405432
3.7057285 -1.9933087 -0.86255515
-8.4826593 -5.6764221 -0.27827084
-2.6035321 -3.8461275 -0.60412711
-2.4931071 -3.7744758 -0.58796185
-2.4342613 -3.7306571 -0.57873195
-2.2564585 -3.6872029 -0.56191307
2.804765 -2.1133969 -0.82740688
2.9229786 -2.0861292 -0.85188615
-8.5313807 -5.5979381 -0.27974987
-3.735647 -4.0652022 -0.5224514
-2.3900347 -3.7090566 -0.57317871
-2.3243682 -3.6758685 -0.56485975
2.9571002 -2.0274737 -0.8549034
3.0022874 -1.9757636 -0.86137819
3.0550394 -1.9148661 -0.86919826
-8.5960855 -5.493216 -0.28181481
-3.7678897 -4.003078 -0.52026689
3.0708141 -1.8457192 -0.8681128
3.1489611 -1.7801694 -0.88249767
-8.6279469 -5.404201 -0.28285152
-5.9958992 -4.602457 -0.46247828
-2.0180788 -3.2970002 -0.64093465
3.101717 -1.7724292 -0.87064368
-8.6554365 -5.3489966 -0.283804
-2.1281018 -3.280333 -0.64754999
-2.0558269 -3.2491608 -0.63663888
-3.0753434 -3.4689126 -0.60065579
-2.1617258 -3.1628587 -0.63279474
-2.1071882 -3.1820364 -0.63079369
-2.1948678 -3.0517247 -0.61943901
-2.1489999 -3.0624876 -0.61668015
2.8021934 -1.4976974 -0.91382748
-2.2347605 -2.9935474 -0.61487389
2.7821705 -1.4104171 -0.90194732
-2.6455047 -2.9677932 -0.65553379
-2.2510135 -2.8868513 -0.60131145
2.7157691 -1.3158507 -0.8768568
-2.5774455 -2.9235611 -0.64188141
-2.4733787 -2.8520691 -0.62056077
-2.3175044 -2.8322544 -0.60068452
2.667629 -1.2329328 -0.85799539
-6.5419002 -3.9830568 -0.48201191
-6.437355 -3.9719532 -0.47486913
-3.683157 -3.0912342 -0.62769997
-6.5865474 -3.9296074 -0.48402941
-3.6876221 -3.0209539 -0.62253284
2.9920437 -0.91469574 -0.9393295
-6.6415501 -3.8553393 -0.48647273
-3.7023959 -2.9243338 -0.61663038
-6.7082887 -3.760956 -0.4895578
-3.7025928 -2.8186278 -0.60863602
-6.7746148 -3.6659846 -0.49279922
-3.8699665 -2.7534556 -0.62398809
-3.759053 -2.7751663 -0.61213887
2.8849919 -0.64829612 -0.90274733
-6.829216 -3.5904684 -0.49566031
-3.9176764 -2.7014909 -0.62626857
-6.8833847 -3.5144145 -0.49861741
-6.9357677 -3.4111729 -0.50133294
3.1277773 -0.24397339 -0.98170626
-7.0168519 -3.2959256 -0.50623369
-6.9924612 -3.3357239 -0.50476485
-7.0584154 -3.2383707 -0.50888103
-9.7110977 -3.9325397 -0.33325797
-7.1140227 -3.1613297 -0.51253438
-9.7392702 -3.8757589 -0.33514535
-7.1738114 -3.0855715 -0.51663637
-9.8104563 -3.7677011 -0.33956403
-9.772687 -3.820966 -0.33725786
-7.1733561 -2.9841485 -0.51630396
-9.8404541 -3.7112899 -0.34161741
-9.8937006 -3.6294894 -0.34506971
-9.9397545 -3.5447264 -0.34832299
-7.1580019 -2.2722025 -0.51692617
-7.038002 -2.187896 -0.50816226
-6.9220147 -2.1065896 -0.49972087
-5.792501 -1.3613009 -0.63362408
-3.4203119 -0.24880938 -0.74885541
-3.3094616 -0.22269686 -0.72354329
0.48469609 2.9077175 -0.9628638
0.51015961 3.0273869 -1.0025078
5.0787697 -8.0728922 -0.59164321
5.5872164 -7.7754378 -0.62526459
5.6550093 -7.7186451 -0.62959719
5.7356849 -7.6787219 -0.63542104
5.787066 -7.6487308 -0.63907075
5.8321166 -7.6105642 -0.64204824
5.8794131 -7.5752449 -0.64530307
6.776475 -6.9731288 -0.71353567
4.5962591 -7.4295697 -0.53789377
5.772871 -6.5789518 -0.61728275
6.0045762 -6.4307251 -0.63550353
5.621192 -6.4902987 -0.60239273
2.0994356 -6.3362374 -0.57393718
1.9414711 -6.1269331 -0.54821503
1.9788587 -6.1148806 -0.55009902
1.8497851 -5.9772682 -0.5314098
1.7559577 -5.8144059 -0.51357538
3.2651837 -5.1029825 -0.59837484
3.3295705 -5.0978847 -0.60455239
3.3475287 -4.9933715 -0.60078329
3.4361954 -5.0214829 -0.6113289
4.3383341 -4.4429421 -0.68451607
4.3721309 -4.4221845 -0.68770504
4.395792 -4.3915544 -0.68933797
4.4410453 -4.3285594 -0.69237477
4.4135933 -4.2252784 -0.68527687
4.5102668 -4.2358646 -0.69736606
4.3521104 -4.0193253 -0.67048371
1.8722847 -3.5073664 -0.67242855
0.79360789 -3.670023 -0.57744467
1.8506837 -3.4226882 -0.65921921
0.76046389 -3.6317482 -0.56925499
1.6825427 -3.2712955 -0.61856562
1.8154784 -3.3172743 -0.64170372
-4.5580678 -5.2057109 -0.4112376
1.7887819 -3.2284334 -0.62736499
-4.2433128 -4.9582448 -0.38635737
-4.1592708 -4.9177642 -0.38095355
3.262687 -2.3773146 -0.79417717
3.0577116 -2.3542645 -0.7531532
3.2543416 -2.3259792 -0.78927058
3.2830935 -2.2698839 -0.79144615
2.9627409 -2.2426064 -0.72736686
3.32796 -2.2093956 -0.79671717
3.3544378 -2.1374953 -0.79797614
3.3910649 -2.0007486 -0.79827237
-2.2649865 -3.6512506 -0.55804819
-2.1771386 -3.6002648 -0.54630661
3.1454701 -1.9448017 -0.74564213
3.0766747 -1.8658037 -0.72767299
-0.79743367 -2.6951349 -0.57989055
2.8674784 -1.5541767 -0.80083901
-2.207504 -3.0913081 -0.48746318
-0.79278815 -2.6097631 -0.56115448
2.7856569 -1.4685576 -0.7760402
2.8046184 -1.4554608 -0.77994186
2.773509 -1.4077898 -0.76977026
2.8678718 -1.3627028 -0.79076076
-2.7251117 -3.0420361 -0.52509451
-2.5347013 -2.9437387 -0.49777889
-2.506398 -2.9451935 -0.4954437
2.7480421 -1.3635552 -0.76121998
2.7629366 -1.3488441 -0.76415205
-2.5045848 -2.8721371 -0.48763728
-2.2818542 -2.786814 -0.5906229
2.6642568 -1.2430094 -0.73468947
-3.7724314 -3.1299272 -0.46444052
-2.3287349 -2.7439818 -0.58986801
2.5151255 -1.1301661 -0.80826938
-3.7415316 -3.0475371 -0.45718104
-3.7480009 -2.9974625 -0.45496124
-3.7456694 -2.9230957 -0.45074964
2.3695943 -1.0262475 -0.76066059
-3.7634244 -2.830307 -0.44747084
2.2852249 -0.94200957 -0.73194999
2.5209827 -0.83755893 -0.79711813
2.5873053 -0.83896989 -0.81683856
2.5882823 -0.71303552 -0.8141275
2.6639583 -0.69491607 -0.83656818
2.6664455 -0.65001428 -0.83673537
2.392695 -0.51811492 -0.75300568
-4.8055415 -1.5767922 -0.51929843
-6.4557066 -1.9021053 -0.46479589
-6.5822077 -1.8752233 -0.47510868
-6.5095429 -1.812655 -0.47003353
-6.3766732 -1.7348927 -0.46036756
-6.3404865 -1.6845363 -0.45811331
-6.2720499 -1.6264781 -0.4534061
-6.1770239 -1.5627617 -0.44667107
-6.0543318 -1.4936335 -0.4378168
-5.9950552 -1.441306 -0.43384534
-3.4559267 -0.308218 -0.6249519
-3.4416251 -0.28690267 -0.62273216
-3.4106095 -0.2448228 -0.61789882
-2.4517589 1.1397864 -0.66013116
-0.47343424 2.4969156 -0.78550261
-0.41293958 2.5306304 -0.79644722
-0.32741266 2.5753517 -0.81169683
-0.23886324 2.6082087 -0.82404208
-0.074850067 2.5735841 -0.81872481
0.58031493 2.8585565 -0.83383799
-0.19002092 2.6400056 -0.83552796
-0.14824928 2.6792397 -0.84941423
-0.097040303 2.7129564 -0.86207026
0.56711078 2.9649217 -0.8614018
0.52570426 3.0007713 -0.86752498
0.57291687 2.9891896 -0.86849838
0.46930295 3.0648355 -0.8802923
0.51420724 3.0875723 -0.89013666
1.2191372 3.3518438 -0.88869137
1.0423845 3.3965814 -0.88070524
1.0891258 3.4268875 -0.89218581
1.1461382 3.4494486 -0.90301633
-1.659691 -15.229863 0.070833281
5.5867662 -5.8528056 -0.58897781
5.3424292 -5.0859327 -0.55617285
6.422205 -4.7389002 -0.6579116
6.4555321 -4.7019048 -0.66109395
2.6959226 -4.8701959 -0.53015637
2.0863867 -4.9326711 -0.48015755
2.1566694 -4.9668522 -0.4881897
2.2819097 -4.8833776 -0.49360955
2.3339314 -4.9126992 -0.49995047
2.5588748 -4.8021512 -0.51343554
2.6379955 -4.838531 -0.52289855
2.9263117 -4.6607556 -0.54050052
2.1659467 -4.8708344 -0.48288918
2.2134752 -4.8563995 -0.4860338
2.3279197 -4.8283448 -0.49422485
2.4749277 -4.7542958 -0.5028969
2.2918501 -4.6887078 -0.48248166
2.3599935 -4.6462088 -0.48599428
2.3004677 -4.6367002 -0.48007697
2.5355811 -4.5346732 -0.49558663
4.220252 -3.8086526 -0.64709872
4.082655 -3.6228573 -0.62392145
4.099009 -3.5703506 -0.62425494
4.1323795 -3.4888945 -0.62588793
4.1850281 -3.4019997 -0.62995946
4.2376533 -3.3577087 -0.6354087
1.4285731 -4.1620793 -0.54111099
1.6375282 -4.0368567 -0.54813981
1.6818681 -3.9739437 -0.54635417
1.7433687 -3.9193449 -0.54729426
1.7888129 -3.8632236 -0.54661095
4.0865822 -3.2029972 -0.61179793
1.8252424 -3.820296 -0.54639179
1.8706462 -3.767488 -0.54630721
0.94339287 -3.9226015 -0.47602326
0.98030603 -3.9175329 -0.47831982
1.3811953 -3.8285391 -0.50314212
1.4881588 -3.8251839 -0.51285136
1.8996162 -3.7133183 -0.54445177
1.9463172 -3.6661854 -0.5453189
3.9998069 -3.0212913 -0.59582394
0.91347706 -3.9062977 -0.47203559
1.3019627 -3.7620592 -0.48921329
1.3889018 -3.7496037 -0.49595571
-5.3358927 -5.7177601 -0.18967922
1.894495 -3.4550178 -0.52041018
-5.3634882 -5.6439538 -0.18903519
-5.1342402 -5.5991273 -0.18340988
0.72617459 -3.5864856 -0.55999935
0.66218466 -3.5075822 -0.54360813
1.7615967 -3.1408889 -0.61314374
1.3069479 -3.2100859 -0.56477493
1.3712255 -3.1726511 -0.56740594
1.4375048 -3.1393664 -0.57109505
3.4894252 -2.5192299 -0.68162274
0.59150189 -3.3871696 -0.52080905
1.2022364 -3.1551666 -0.54567951
1.2432657 -3.1714075 -0.55242229
1.4071652 -3.1262021 -0.56571549
1.4746627 -3.0963762 -0.57024491
1.5148119 -3.0384867 -0.56804752
3.1769376 -2.5055294 -0.63069969
3.4841928 -2.4672172 -0.6785298
3.5592985 -2.4361131 -0.68958545
3.6084452 -2.3872468 -0.69577408
0.47611839 -3.2299902 -0.48955834
0.53657347 -3.2293866 -0.49388212
3.1160076 -2.4296248 -0.61732614
3.2790091 -2.4223552 -0.64319533
3.6671858 -2.3276339 -0.70335698
3.7098238 -2.3052652 -0.70972991
0.66730565 -3.1036918 -0.48620033
3.0751083 -2.3695984 -0.6079343
3.14096 -2.356462 -0.61791229
3.4880066 -2.2659276 -0.67114747
3.4527905 -2.1104155 -0.65973496
-2.3276746 -3.8694012 -0.42568177
1.0551624 -2.7610221 -0.59022695
-2.5226367 -3.7760568 -0.42636353
-2.3182201 -3.7305558 -0.41270036
0.96291745 -2.7036591 -0.56894755
1.0406151 -2.7279379 -0.58286309
1.1205682 -2.6679454 -0.58349806
1.2097244 -2.6085954 -0.58631247
1.284757 -2.6165781 -0.5984475
2.8077507 -2.106015 -0.68841577
-2.517205 -3.7180531 -0.42104512
-2.4083638 -3.6942921 -0.41363496
-2.2840359 -3.6391504 -0.40291852
0.53058982 -2.60495 -0.50443357
0.5887329 -2.6032646 -0.50976133
0.67152482 -2.569665 -0.51228499
0.87145495 -2.548167 -0.53135854
-6.0133028 -4.6134481 -0.19382183
-2.3283293 -3.3815315 -0.38236928
-0.70219886 -2.918654 -0.51241553
0.68204832 -2.4699399 -0.59686065
0.74970585 -2.428664 -0.59682763
0.82805365 -2.4077344 -0.60304505
0.88676846 -2.3753512 -0.60474372
-0.75398648 -2.8240514 -0.49581915
0.46262395 -2.4573503 -0.56947684
0.51423097 -2.3894315 -0.56021649
0.57377744 -2.3821313 -0.56527448
0.70026374 -2.3715847 -0.57847857
0.84590393 -2.37819 -0.59945369
0.92376006 -2.3264835 -0.60039139
0.98871684 -2.2683635 -0.59892589
-0.81622797 -2.7176638 -0.47775191
-0.77931923 -2.7432582 -0.48161656
0.50812232 -2.3141291 -0.54331094
0.56234044 -2.2958999 -0.54551232
0.69370204 -2.2790854 -0.55823022
2.9022994 -1.5519394 -0.67745918
-2.2030528 -3.0259347 -0.47960633
-2.1423194 -3.0539474 -0.47835916
-0.87823188 -2.6610327 -0.46918452
-0.55937749 -2.5252156 -0.53772587
-0.50967145 -2.5017202 -0.53213859
0.18927848 -2.2761283 -0.50520957
0.22433645 -2.263839 -0.5051614
0.36658728 -2.2731242 -0.51974958
0.4517532 -2.2703052 -0.52770168
0.56345916 -2.2068515 -0.52668417
-2.6733463 -3.1522346 -0.38352817
-2.6383631 -3.071528 -0.3751061
-2.2497697 -2.977793 -0.47774959
-0.97096944 -2.5475461 -0.4521665
-0.93237495 -2.5849552 -0.45734996
-0.57063723 -2.4579959 -0.52292329
-0.50553918 -2.4731228 -0.52576739
-0.42377979 -2.4151893 -0.51276553
-0.31931466 -2.3657324 -0.50263315
-0.24853514 -2.3801532 -0.5071578
-0.1696182 -2.3005526 -0.4913612
0.14344373 -2.2764432 -0.50191396
1.0061628 -1.9584574 -0.5422942
2.7626276 -1.4171357 -0.64301807
2.7829657 -1.372031 -0.64562631
-2.3353755 -2.8911104 -0.47506267
-2.2901824 -2.9218001 -0.4746964
-1.0977161 -2.4686012 -0.54570514
-0.99963945 -2.4518781 -0.53633761
-0.98000193 -2.4659576 -0.53822827
-0.56667113 -2.354589 -0.49995542
-0.30774963 -2.317452 -0.49186677
-0.223775 -2.2872896 -0.48679459
-0.19649491 -2.2840233 -0.48679936
-2.3743277 -2.817595 -0.47045773
-2.3370793 -2.8055449 -0.46596783
-1.125213 -2.4527097 -0.5442403
-1.0216324 -2.4006138 -0.5268712
-6.5847812 -4.0051799 -0.21071152
-1.0913312 -2.2919893 -0.5090853
-0.82965416 -2.1999371 -0.47430003
-6.6186161 -3.9445653 -0.21196602
-1.174268 -2.2257998 -0.5018326
-1.141535 -2.2594559 -0.50599855
2.3778584 -1.0755768 -0.65600377
-6.6812539 -3.8472123 -0.21439238
-1.2198238 -2.1389418 -0.48852026
2.3099558 -0.98680305 -0.63541532
2.3468232 -1.0185201 -0.64589733
-6.747282 -3.7516713 -0.21707292
-1.2573452 -2.0598941 -0.4766416
2.2691085 -0.9108296 -0.7257973
2.4184625 -0.85165703 -0.65880996
-6.7946868 -3.6719756 -0.21913348
2.1964896 -0.84454662 -0.70169252
-6.8543787 -3.5986867 -0.22172306
2.1134057 -0.75466996 -0.67378998
2.2086658 -0.78418303 -0.70297587
-6.9057055 -3.5206068 -0.22410943
2.1504884 -0.65145743 -0.68180054
2.2704887 -0.65916687 -0.71785724
-6.9848127 -3.4039772 -0.2279412
-6.9377203 -3.4586117 -0.22572668
2.3479917 -0.4860861 -0.73937976
-7.0370283 -3.3255594 -0.23059551
-7.0947075 -3.249274 -0.23354237
2.0686388 -0.41575342 -0.65453535
-7.1665592 -3.1530638 -0.23735161
-7.1392627 -3.1923079 -0.23586039
-7.2234797 -3.0751705 -0.24050049
-7.1488338 -2.9424181 -0.23893212
-7.5348248 -2.6355169 -0.25951749
-7.5647578 -2.569838 -0.26188797
-4.3967385 -1.2583166 -0.4719494
-5.9334197 -1.3893065 -0.42970479
-5.8655357 -1.3367984 -0.42509294
-5.6766238 -1.2411102 -0.41145724
-2.3446643 1.017502 -0.61751974
-2.1550305 1.066318 -0.58690506
-2.3800581 1.0600562 -0.63191235
-2.1602185 1.1016196 -0.59426767
-2.1084495 1.1532477 -0.59348965
0.52730489 2.028832 -0.69584006
-2.404326 1.1683013 -0.65533751
-2.2925613 1.2164935 -0.64152658
0.48524684 2.0545256 -0.69880557
-1.9404756 1.4341327 -0.61950296
0.37182385 2.1383712 -0.71261138
0.393879 2.1701651 -0.72466767
-1.9741066 1.4616561 -0.63134664
-1.8917 1.524545 -0.63139439
-1.8103127 1.5078703 -0.61417025
-1.5772477 1.6649122 -0.61715323
-1.5426611 1.6876411 -0.61823422
-1.5939807 1.6848356 -0.62452042
-1.516946 1.7555742 -0.63252503
-1.4322445 1.7933027 -0.63201571
-1.3497108 1.8284285 -0.63207388
-1.1733223 1.8943635 -0.63262087
0.39611775 2.3076069 -0.76756936
-1.3447481 1.8791517 -0.64544994
-1.2699314 1.9219881 -0.64969832
-1.1922928 1.970264 -0.6561082
-0.97470212 2.0549657 -0.66421825
0.7040233 2.5758917 -0.77033293
-1.1623358 2.025542 -0.66943258
-1.1014632 2.0641639 -0.6758669
-1.0118552 2.1032186 -0.68106669
-0.93080372 2.1824017 -0.69996274
-0.87856257 2.210629 -0.70580125
0.33261493 2.5383329 -0.72591138
0.6340723 2.6738973 -0.78928518
0.66823184 2.6350317 -0.78233916
-0.83492965 2.2441995 -0.7141133
-0.75705844 2.2977355 -0.72765726
-0.67078674 2.3598948 -0.74459666
0.07607764 2.5995491 -0.72580159
0.61803305 2.7150156 -0.79873896
0.61458468 2.7708786 -0.81341779
-0.58196545 2.4266493 -0.76397073
-0.51631731 2.4609733 -0.77423149
-0.39494687 2.5376909 -0.6927219
-0.31730092 2.581984 -0.70623815
-0.24523211 2.6186633 -0.71805799
-0.039039828 2.6065161 -0.72201872
0.59310699 2.7965813 -0.81830847
1.1302682 2.9922388 -0.79887652
-0.19623752 2.6474187 -0.72741294
-0.13760948 2.6869478 -0.74033701
-0.068637513 2.73241 -0.75558287
0.13854593 2.8158338 -0.78902024
0.57340115 2.9805636 -0.74340087
1.067855 3.0860035 -0.81315506
0.14240876 2.8542669 -0.79981536
0.34520823 3.0180354 -0.73565531
0.53251135 3.0195379 -0.74928594
0.57877004 3.0026901 -0.74897838
0.63692361 3.0758827 -0.7706309
0.38920474 3.0465991 -0.74529588
0.46478862 3.0783415 -0.75800896
0.51954603 3.0995243 -0.76695251
0.91691279 3.2291975 -0.83057553
0.83301342 3.2841315 -0.83544964
0.88304281 3.3003666 -0.84369195
0.99623036 3.3303387 -0.86117256
2.4858372 -6.9105449 -0.37364799
2.3663321 -6.7829604 -0.36198443
2.2229836 -6.5187607 -0.34435135
2.7613635 -6.2290096 -0.36998498
2.889251 -6.1579866 -0.37665462
3.0646441 -6.1327853 -0.38829964
3.5932381 -5.9458699 -0.42248648
2.9177785 -6.0758643 -0.37622172
3.0579829 -6.0310764 -0.38489455
3.1242087 -6.0222597 -0.38943166
2.7694893 -6.0078712 -0.3638407
2.57302 -5.9688187 -0.34921682
2.6858573 -5.927599 -0.35564703
1.9898088 -6.0509267 -0.31444144
1.8786991 -5.9079995 -0.30290526
2.3680289 -5.703352 -0.32722622
2.7215526 -5.5631909 -0.34732008
4.3546114 -4.4938622 -0.45708621
4.3804007 -4.4379563 -0.4586792
4.3865495 -4.3374553 -0.45791787
4.4369464 -4.3060455 -0.46220231
4.4863143 -4.2474174 -0.46611762
5.3159122 -3.9989603 -0.54442012
-3.9661529 -6.010376 -0.1739931
-4.0461903 -5.9349532 -0.17295705
-3.9706824 -5.8985047 -0.17121507
1.1868703 -4.2574654 -0.36641592
-4.1187849 -5.8498068 -0.17173584
-4.0776777 -5.9043212 -0.17256396
-4.1756864 -5.7810874 -0.17082395
-4.2271042 -5.7057738 -0.16977035
-4.28056 -5.63448 -0.1689219
-4.349781 -5.5151958 -0.16737013
-4.2904263 -5.5416327 -0.16701405
-4.3572426 -5.4220901 -0.16551326
0.97413254 -3.7686117 -0.46215129
-4.3856168 -5.3241224 -0.16397326
0.77143508 -3.738657 -0.44375479
0.82085204 -3.6985509 -0.44305718
1.8778481 -3.3577275 -0.50981688
-4.9408503 -5.4502101 -0.17682223
-4.4390626 -5.226306 -0.16296344
0.7543447 -3.5770235 -0.42523211
1.290437 -3.4233997 -0.45419806
1.8703284 -3.3005223 -0.50387734
3.6500516 -2.7350905 -0.54320717
-4.5630865 -5.1809969 -0.16442911
0.69754344 -3.5309737 -0.41624486
3.5605812 -2.6209803 -0.52876043
0.6206131 -3.4869447 -0.4061904
1.1347768 -3.2733829 -0.42470813
3.5361726 -2.5212784 -0.5232501
-5.2493987 -5.1339254 -0.17854692
3.5345719 -2.4072731 -0.52060676
-5.2636309 -5.0553885 -0.17778359
3.5410678 -2.3013144 -0.51943171
-5.2858715 -4.9553504 -0.17698263
3.546504 -2.227633 -0.51888043
-5.4413843 -4.9511514 -0.18089871
-5.3791919 -4.953423 -0.17932276
0.40313321 -2.9483187 -0.44344831
0.67980826 -2.9032543 -0.45887011
0.75797063 -2.8504348 -0.45851845
-2.5902631 -3.8111799 -0.26695693
0.92922616 -2.6096272 -0.44285536
2.717459 -2.0848927 -0.53723514
0.71688366 -2.5634601 -0.41469795
0.74409992 -2.5191298 -0.41125119
3.003931 -1.8272568 -0.57440758
-0.70414394 -2.898315 -0.39870054
0.48702854 -2.4998255 -0.48152381
0.75830495 -2.4690459 -0.46453238
0.83753794 -2.4726479 -0.4145664
2.981467 -1.7768528 -0.56898105
-2.9348433 -3.4760144 -0.26178044
-2.2748017 -3.2571118 -0.36891758
-0.77650535 -2.8184178 -0.38756579
-0.74277991 -2.8671129 -0.39433503
-0.63527894 -2.7659452 -0.3793329
0.66058385 -2.3888261 -0.47944552
2.8886912 -1.6772604 -0.55010623
-2.2621138 -3.1757426 -0.36131144
-0.82743508 -2.7383294 -0.37663579
0.19296178 -2.3970368 -0.43918443
0.43121356 -2.3698721 -0.45306087
2.883312 -1.591519 -0.54677701
-2.4874387 -3.1102252 -0.3686868
-2.3915842 -3.1185129 -0.36371738
-2.286793 -3.1103883 -0.35714006
-0.88267636 -2.6548326 -0.36564082
-0.5776633 -2.5195427 -0.43848562
-0.28254321 -2.4264665 -0.42354512
-0.25320131 -2.4186981 -0.42275417
0.17866245 -2.2978184 -0.41995752
0.25090149 -2.2496147 -0.41623616
0.36805761 -2.2572753 -0.42714483
0.59910327 -2.1671875 -0.43406898
0.71672231 -2.2038748 -0.45403612
2.8667128 -1.4910908 -0.54136753
-2.5358927 -3.0768213 -0.36902851
-2.4327164 -3.0768464 -0.36273938
-0.9570266 -2.5633798 -0.35440272
-0.92188358 -2.6132045 -0.3605364
-0.55833787 -2.496856 -0.43423682
-0.4999795 -2.4134626 -0.41881967
-0.41500613 -2.3751211 -0.41209161
-0.33693755 -2.3838711 -0.41462541
-0.21203107 -2.3258832 -0.40651733
-0.1469913 -2.2722814 -0.44205797
-0.04727681 -2.2475269 -0.45553142
0.090073392 -2.2382035 -0.43802893
0.13318613 -2.2410216 -0.47159398
0.2741102 -2.2331228 -0.47338355
0.31915286 -2.2130618 -0.44406813
0.53732151 -2.1269341 -0.50655311
1.0316857 -1.9631952 -0.4586246
-2.6252284 -2.9460354 -0.36479717
-2.5654752 -2.9470868 -0.36092263
-1.0087279 -2.4870174 -0.44314897
-0.21454333 -2.274627 -0.4405275
-0.14685243 -2.2586882 -0.43943954
-0.066417776 -2.198287 -0.47227919
0.024861842 -2.1572335 -0.46765488
0.14367208 -2.0815365 -0.4583565
0.98541701 -1.8982598 -0.52739811
-2.6476686 -2.9186983 -0.36429322
-2.5053098 -2.8403599 -0.34893197
-1.1208318 -2.3684943 -0.42832941
-1.0777636 -2.4051588 -0.43230325
0.9053998 -1.7434953 -0.48441786
2.6021149 -1.2498624 -0.60329849
-1.1546799 -2.3135192 -0.42108536
-0.97379589 -2.280405 -0.40588588
0.90806484 -1.7135464 -0.47936565
2.5595949 -1.1917455 -0.59242177
-3.5776899 -2.9832392 -0.27274853
-3.4886241 -2.9966633 -0.2682817
-1.2108719 -2.2230191 -0.4097231
-0.82297677 -2.09289 -0.45118535
-0.7366603 -2.0638938 -0.44108725
-0.66811115 -2.067929 -0.43935388
2.3232603 -1.0738275 -0.53858125
2.3619742 -1.0719386 -0.54677898
2.9773467 -0.86694211 -0.55516976
-3.6838274 -2.9271955 -0.27694303
-3.6185133 -2.9274311 -0.27321005
-1.2457963 -2.1318018 -0.39743066
-0.98052156 -2.0299187 -0.44755191
2.2964437 -1.0190947 -0.53130674
2.5095401 -0.91027188 -0.57511121
-1.2619166 -2.0576761 -0.38687992
-0.94769877 -1.920681 -0.42291659
2.2359028 -0.92516994 -0.61451393
2.4895942 -0.87699956 -0.5702759
2.5123165 -0.85732985 -0.57500333
2.2189217 -0.8450219 -0.60766959
2.2825916 -0.7844798 -0.62238961
2.4182196 -0.77729964 -0.55352175
2.2259104 -0.70403165 -0.60622013
2.265496 -0.74703467 -0.61721331
2.4063327 -0.68995428 -0.55042362
2.4904675 -0.62551624 -0.56914604
2.1893804 -0.64786792 -0.59594798
2.4962647 -0.5673725 -0.57075089
2.5187888 -0.51250309 -0.5763126
2.145911 -0.5546034 -0.58383816
2.5193598 -0.42855173 -0.57767224
2.145452 -0.4605245 -0.58367878
2.1680384 -0.43387878 -0.58976966
2.5169735 -0.32844871 -0.57919002
1.9984567 -0.37031218 -0.63335645
2.1255324 -0.37654531 -0.57906532
2.1493359 -0.33886364 -0.58595204
2.4717412 -0.27475417 -0.57030714
1.9472454 -0.29039574 -0.61857283
2.1400549 -0.23588312 -0.58565849
2.4431851 -0.16014746 -0.56752199
1.9582248 -0.22591297 -0.62313092
1.9957738 -0.19587123 -0.63541281
2.1458774 -0.15130043 -0.58977687
2.1738505 -0.10241219 -0.59905136
2.0729754 -0.040280256 -0.60010517
2.14429 -0.038156487 -0.59392649
1.9711823 0.0086795352 -0.63612193
2.0219874 0.016495291 -0.58175993
1.7036645 0.024422739 -0.55471414
-4.796463 -1.5705478 -0.33697355
-7.1528716 -2.2635851 -0.24934654
-7.0679121 -2.190223 -0.24698897
-6.9364109 -2.10409 -0.24285029
-6.8587403 -2.0358138 -0.24075983
-6.5316129 -1.833213 -0.23038124
-6.4420414 -1.7459894 -0.22824423
-6.3247285 -1.6537589 -0.22502415
-6.1666231 -1.5537226 -0.22018491
0.74913079 1.5642041 -0.59011328
0.8156507 1.6584886 -0.6280818
0.92088747 1.7007681 -0.65820569
0.96107531 1.7074323 -0.66719216
-2.0735025 0.87377071 -0.49417198
0.62840623 1.7175279 -0.61568522
0.66645241 1.7284662 -0.62450302
0.7859118 1.7415955 -0.64688617
1.0650334 1.8479745 -0.63228428
-2.169544 0.93677062 -0.47804004
-1.901695 1.0567986 -0.53496414
-1.8342345 1.0338212 -0.517546
-1.7086986 1.0604196 -0.49907607
0.6021387 1.7479315 -0.62095326
0.63478172 1.7944701 -0.63936687
0.77501214 1.8082261 -0.66435945
0.8909471 1.8926607 -0.61674601
0.96143913 1.891439 -0.62683731
1.0361248 1.9082358 -0.642313
-2.2572055 1.0276703 -0.50660056
-2.1799824 1.0600033 -0.49840879
-1.9371548 1.094419 -0.5490126
-1.6751858 1.1536611 -0.51230234
-1.4812118 1.2832285 -0.5090282
-1.4031379 1.3151673 -0.50477797
0.56233114 1.8997977 -0.66109759
0.60836619 1.8995881 -0.66708571
0.90452588 1.9993699 -0.64544702
-2.2193513 1.081419 -0.50838262
-2.1638701 1.1080335 -0.50329399
-1.4865009 1.3186122 -0.51831734
-1.343233 1.3504696 -0.50488526
0.53092474 1.9859562 -0.68325257
0.60576814 1.9669001 -0.68691039
0.78760999 2.0825222 -0.6508373
0.86297345 2.0391655 -0.64970374
1.1698593 2.1604335 -0.62292963
-2.2768617 1.2340055 -0.54230297
-2.2290387 1.266894 -0.54000825
-1.7805126 1.3537408 -0.57424927
-1.6386745 1.3651446 -0.55327767
-1.2997003 1.5613421 -0.55387986
-0.057375446 1.8594865 -0.59275782
0.0070070028 1.9233577 -0.61643821
0.078410417 1.9745312 -0.63699067
0.18808952 2.0061653 -0.65494472
0.25108075 2.0266168 -0.66657674
0.39915061 2.048475 -0.68753922
0.4573735 2.0316145 -0.6886375
0.77146858 2.1764059 -0.67310727
1.0879886 2.2269945 -0.62641072
-2.2095449 1.2864463 -0.54023319
-2.1313219 1.3457893 -0.53830481
-2.0442309 1.4101858 -0.53681839
-1.9774594 1.4505333 -0.53462303
-1.4614977 1.5667126 -0.57621014
-0.049867257 2.0308309 -0.64750588
0.090379953 2.0060744 -0.6477375
0.13232586 2.0293369 -0.65799868
0.25680315 2.0565596 -0.67643458
0.65760756 2.2354753 -0.67512691
0.70723283 2.2179687 -0.67620981
-1.9304961 1.4772928 -0.53310925
-1.8625818 1.5128769 -0.53075659
-1.7762158 1.5678021 -0.53052503
-1.6857516 1.6257492 -0.53141391
-1.6378297 1.6560115 -0.53221697
-1.5024596 1.6592175 -0.60552377
-1.405605 1.7142483 -0.52014858
-0.072829068 2.1225333 -0.67555338
0.63930482 2.27549 -0.68366814
-1.6037472 1.7021323 -0.53851944
-1.513527 1.7453283 -0.53842336
-1.4082917 1.8005102 -0.5406636
-1.3480126 1.8167963 -0.55363858
-1.2095151 1.8481221 -0.62288094
-1.1599005 1.897966 -0.63243806
-0.040445864 2.2072484 -0.61151803
0.12750247 2.3220353 -0.65227562
0.98815787 2.5390723 -0.68253541
-1.32187 1.8839798 -0.55283898
-1.2639191 1.9230397 -0.55766243
-1.1786952 1.9868712 -0.56722772
-1.1144245 2.0317509 -0.57429612
-1.0741532 2.0632792 -0.57994318
-1.0117519 2.1180859 -0.59074748
-0.92594963 2.1780639 -0.60250002
-0.86981493 2.2172511 -0.61067879
-0.82464576 2.2460063 -0.61687154
-0.75436735 2.2987676 -0.62915689
-0.66655153 2.3535666 -0.64237213
-0.59139085 2.4065111 -0.65600574
-0.54895943 2.4337542 -0.66327167
-0.4913353 2.4724281 -0.67395979
-0.39959833 2.534235 -0.60660499
-0.31384838 2.5831192 -0.60300064
-0.24194977 2.6228895 -0.61423123
0.62183392 2.825182 -0.71138561
0.69365734 2.9095519 -0.73700476
-0.19290721 2.6511829 -0.62238741
-0.13423175 2.6863263 -0.6327123
-0.056184039 2.7472718 -0.6501596
0.0071887076 2.8005989 -0.66553319
0.053530842 2.8319399 -0.67511839
0.11082894 2.871208 -0.68728805
0.19857502 2.9193661 -0.70345283
0.28977257 2.9691346 -0.72062612
0.51009649 3.0955439 -0.64216298
-1.2312262 -11.663609 0.056021169
-1.1554875 -11.618274 0.053747609
-1.0871655 -11.656171 0.051725164
-0.9754371 -11.594506 0.048310176
-0.86444318 -11.525898 0.044877037
-0.64550298 -11.361437 0.037963703
-0.57528794 -11.341334 0.035726443
-0.091533266 -11.153564 0.019795403
-0.50379014 -11.27282 0.033408269
-0.36342749 -11.13745 0.028804138
-0.29533556 -11.128606 0.026569054
-0.19346382 -11.130502 0.023196384
-0.43090147 -11.117887 0.030989215
-0.70023787 -11.070503 0.039549246
-0.75835013 -10.901134 0.041281059
4.697154 -8.891304 -0.19394888
4.5584722 -8.764185 -0.18720616
4.6919918 -8.7548056 -0.19444717
-1.318031 -10.515689 0.0578105
-1.2532287 -10.516744 0.055939332
4.7182102 -8.6770716 -0.1963198
4.7735391 -8.5907679 -0.19985074
-1.4112183 -10.480054 0.060444906
7.0720487 -7.7638521 -0.34221089
8.3821678 -7.4015245 -0.43107176
4.7775626 -8.4189434 -0.20112963
4.8153973 -8.3662748 -0.20354716
6.2677913 -7.9030132 -0.29131097
6.3341808 -7.8858795 -0.29549307
6.4470067 -7.8748198 -0.30245131
6.5341558 -7.8321075 -0.30820996
8.4343939 -7.310173 -0.43589902
4.8279538 -8.2723827 -0.2048489
4.8912492 -8.2630472 -0.208425
4.9674792 -8.2180386 -0.21298547
6.1901469 -7.9056153 -0.28661132
5.0646586 -8.1509418 -0.21891625
5.1637244 -8.0868492 -0.22499336
5.2600055 -8.0186682 -0.23100381
5.3352408 -7.9719357 -0.23568927
5.407125 -7.9203424 -0.24025868
5.5015817 -7.8496261 -0.24633752
5.5453815 -7.7599778 -0.2496676
5.744257 -7.6815543 -0.26211077
5.8300877 -7.5997219 -0.267995
6.7158413 -7.2933493 -0.32555354
6.7945857 -7.2872109 -0.33056796
6.8927665 -7.2559171 -0.33713883
6.9450316 -7.1337161 -0.34199524
6.8164949 -6.8784804 -0.3371321
1.8236572 -5.863565 -0.29810399
2.3853004 -5.6495733 -0.32670277
1.7438085 -5.7418804 -0.28921616
1.6759977 -5.6517372 -0.28213596
3.2834566 -5.0739636 -0.37651747
3.3657808 -5.0616846 -0.38279384
3.4190445 -5.0397444 -0.38656718
2.7603104 -5.1688714 -0.33891654
2.8318508 -5.1129394 -0.34269029
3.4255376 -4.9530239 -0.38510722
2.8712401 -5.0737438 -0.34459132
2.9013643 -5.0542636 -0.3463515
2.8909619 -4.6172519 -0.33436203
4.4049263 -4.1230564 -0.45704985
4.4251437 -4.066113 -0.45833874
4.4737606 -4.0096946 -0.46237743
-7.2092767 -7.5501404 0.13794203
-7.2658262 -7.4721694 0.13724454
-7.3327904 -7.4053082 0.13669358
-7.3531504 -7.3362074 0.13590352
4.1667275 -3.6553371 -0.42963803
4.0385919 -3.4831922 -0.41578507
4.0718312 -3.467479 -0.41886467
4.1029587 -3.4073541 -0.42142379
4.1357579 -3.3488424 -0.42421275
-7.6664333 -6.8991833 0.13095771
-7.7495003 -6.8060908 0.12978293
1.0363501 -4.0332174 -0.34056729
1.147753 -4.0481496 -0.34923846
-7.827271 -6.7083812 0.12846617
0.97226417 -3.993562 -0.33352274
1.5190613 -3.7790446 -0.35941935
-7.8775835 -6.6283827 0.12732516
0.91611731 -3.884156 -0.32215613
3.9185205 -2.874934 -0.40027648
-7.9358134 -6.5553551 0.12626056
0.82799405 -3.7862298 -0.30957931
1.9088883 -3.4137478 -0.37158018
3.9589591 -2.8474772 -0.40426081
4.0006371 -2.8020618 -0.40836602
4.0899506 -2.7688286 -0.41740423
4.188055 -2.7207067 -0.42744029
-8.0115509 -6.4564548 0.12476139
0.33684692 -3.8411438 -0.28604597
1.3012767 -3.4857812 -0.32281739
1.3514452 -3.4868879 -0.32690775
1.9072833 -3.3426814 -0.36736536
-8.064724 -6.379488 0.12354951
0.2949402 -3.7845993 -0.27986103
0.73410356 -3.6030371 -0.29068035
1.3198794 -3.4713118 -0.32335633
1.8769238 -3.2500141 -0.35918999
-8.087698 -6.3184142 0.12255545
0.67418963 -3.4951379 -0.27929872
1.848961 -3.1425486 -0.35043985
-8.2040806 -6.1730561 0.120115
1.1364022 -3.2565513 -0.29478937
1.8499794 -3.082372 -0.34719342
-8.2358847 -6.1193218 0.11918025
-8.2849026 -6.0398726 0.1177655
-8.3488312 -5.9331875 0.11581318
0.47252524 -3.1784647 -0.363011
3.0264862 -2.3817871 -0.45339137
-8.4042845 -5.8586612 0.11440121
3.4292295 -2.1141963 -0.5011332
-8.4408712 -5.7710733 0.1127301
3.3744707 -2.0538216 -0.49275064
3.4467711 -2.0371392 -0.50239944
-8.5008812 -5.6625004 0.11058708
0.69781226 -2.7861557 -0.33714426
0.73097789 -2.7751813 -0.33867264
1.4369206 -2.5652454 -0.38867223
2.7105882 -2.1221957 -0.4058038
3.3512871 -1.9285481 -0.48784715
3.3826842 -1.9038452 -0.49188513
3.5656266 -1.9281304 -0.5175131
3.6008937 -1.91724 -0.52231932
-8.5626507 -5.5923004 0.10912733
-0.58658946 -3.036432 -0.30691504
-0.5336926 -3.0561457 -0.309762
3.4139664 -1.8787121 -0.49593759
-8.6182833 -5.5178809 0.10755669
-2.3968439 -3.5843914 -0.24848227
-2.3130226 -3.4992552 -0.24123393
-0.64219487 -2.9795783 -0.30015564
-0.55529225 -2.947495 -0.29749364
-8.6690588 -5.4037228 0.10516198
-2.1834884 -3.3377624 -0.22836302
-2.1451185 -3.3203712 -0.22629488
-2.0513105 -3.3223114 -0.22391127
-0.73969817 -2.8709726 -0.28783685
-0.70471084 -2.9215605 -0.29344475
-0.58438033 -2.902051 -0.29217046
-0.4715201 -2.8469095 -0.28756541
0.31172448 -2.5453084 -0.37841272
0.78168887 -2.4827964 -0.41008377
0.8112334 -2.4711268 -0.41157174
-2.0894971 -3.2735877 -0.22208108
-2.0641413 -3.2759812 -0.22154056
-0.7636131 -2.8172874 -0.28201604
-0.41046748 -2.6719108 -0.26923859
-0.35456783 -2.6790476 -0.27113801
-0.20911905 -2.666079 -0.27346855
-0.16138802 -2.6604373 -0.27431065
0.26588777 -2.5040596 -0.36930937
-2.2713926 -3.1932955 -0.22299013
-0.8158741 -2.7414699 -0.27397209
-0.47956452 -2.642638 -0.26487666
0.20122829 -2.4280145 -0.35402083
2.9518204 -1.5693443 -0.42860955
-2.5703478 -3.16225 -0.23197749
-2.483166 -3.1273544 -0.22690827
-2.425951 -3.1098697 -0.22389521
-2.3090858 -3.1063502 -0.21957172
-0.87752247 -2.6486576 -0.26445764
-0.54968363 -2.5068893 -0.34164035
0.14904565 -2.309845 -0.33348215
-2.5770478 -3.0933754 -0.2288443
-2.3412352 -3.0533152 -0.21791337
-0.96000481 -2.5559239 -0.25563848
-0.92102784 -2.5932384 -0.25903183
-0.57101619 -2.4968197 -0.34012479
-0.49535766 -2.4495604 -0.33349955
-0.41549459 -2.4014952 -0.3271758
-0.34566709 -2.3504572 -0.32064307
-0.19719957 -2.3246789 -0.32030624
0.071554929 -2.2292075 -0.31724972
0.12362269 -2.2727897 -0.32654101
2.7242627 -1.3689532 -0.5137372
-2.7438505 -3.0128362 -0.2320248
-1.0156935 -2.483325 -0.33116472
-0.30736038 -2.3094139 -0.31528014
-0.25090539 -2.2839236 -0.31279713
-0.13936511 -2.2163014 -0.32648599
-0.063739054 -2.1966434 -0.34669131
0.017712802 -2.1655707 -0.35862643
0.98677111 -1.8606905 -0.39428145
2.6922107 -1.3122774 -0.50695336
-2.4751449 -2.8070176 -0.21096207
-1.1114905 -2.3700635 -0.33293605
-1.0797949 -2.4148865 -0.33776611
0.91413474 -1.724955 -0.40395862
-1.1517457 -2.3104107 -0.32671636
0.9103713 -1.6748106 -0.39582366
2.5001266 -1.1974475 -0.47090447
2.9005992 -1.0295792 -0.54104751
3.242506 -0.88381189 -0.47278452
-1.2108651 -2.2256444 -0.31844348
2.3184319 -1.0915064 -0.43689495
2.8300505 -0.94665277 -0.52795875
2.8850994 -0.94982803 -0.53805435
2.9524643 -0.90120494 -0.55046874
3.202522 -0.86300015 -0.46718532
3.2397342 -0.86110955 -0.47272545
-1.2542961 -2.1347134 -0.30914676
2.2956686 -1.0467376 -0.43213826
2.5104764 -0.93980765 -0.46967763
2.968909 -0.8037172 -0.55399823
-1.2748667 -2.0681815 -0.3019982
2.1897411 -0.91884178 -0.50587171
2.2334342 -0.96026224 -0.51626951
2.9653649 -0.70246744 -0.55430847
2.1563218 -0.87440145 -0.49768364
2.175714 -0.81744605 -0.50082976
2.9043081 -0.61157233 -0.54414892
2.0441556 -0.7887004 -0.47169644
2.0785363 -0.8156116 -0.47965521
2.3236558 -0.65284806 -0.53195226
2.3613949 -0.64579856 -0.5403378
2.7042189 -0.53832436 -0.50789642
2.7909267 -0.52540767 -0.52439392
2.822216 -0.50247902 -0.53071761
2.7636328 -0.43879715 -0.52109432
2.8189638 -0.48334077 -0.53050584
2.6953876 -0.38518631 -0.50954086
2.8232112 -0.33196625 -0.53515196
-9.5650225 -4.0822277 0.071064994
2.7952511 -0.25083062 -0.5323965
2.8305547 -0.22584502 -0.53990149
-9.6411915 -4.0461287 0.06970425
2.4255595 -0.23091187 -0.5611136
-9.6923227 -3.9646759 0.067259327
2.3790505 -0.1417934 -0.55355942
2.500375 -0.091882274 -0.48240048
2.6789093 -0.060110793 -0.51761085
-9.7661228 -3.8578341 0.063959882
2.0160558 -0.14157516 -0.47093397
2.2117999 -0.09908855 -0.5171963
2.3611898 -0.11020526 -0.55071127
-9.8199224 -3.7765985 0.061423287
2.0306692 -0.03489165 -0.47863412
